ply
format ascii 1.0
comment Created by Open3D
obj_info Generated by CloudCompare!
element vertex 608
property float x
property float y
property float z
property uchar red
property uchar green
property uchar blue
property float nx
property float ny
property float nz
property float scalar_leaf0
end_header
-0.086967 -0.427621 -1.005240 87 84 70 0.733590 0.653618 0.186089 0.000000 
-0.125571 -0.302222 -0.619733 103 99 86 0.635040 0.645040 -0.425027 0.000000 
-0.129828 -0.190064 -0.319971 82 77 66 0.378085 -0.839318 0.390636 0.000000 
-0.111487 -0.282768 -0.576267 71 72 64 -0.909992 -0.267301 -0.316963 0.000000 
-0.088364 -0.428786 -0.958197 85 75 45 0.795980 -0.591427 0.128958 0.000000 
-0.130304 -0.245624 -0.495279 63 63 52 -0.433203 0.867916 -0.243016 0.000000 
-0.124970 -0.191245 -0.326296 98 98 86 -0.655492 -0.671839 0.344910 0.000000 
-0.117481 -0.304856 -0.614422 118 111 90 -0.048919 -0.959564 0.277207 0.000000 
-0.108833 -0.347651 -0.814346 81 79 62 0.125648 0.938981 -0.320199 0.000000 
-0.122148 -0.317832 -0.677524 89 87 72 -0.734219 -0.678911 0.001383 0.000000 
-0.099763 -0.377090 -0.819191 121 114 94 0.055712 -0.895470 0.441620 0.000000 
-0.099857 -0.409973 -0.903176 113 104 81 0.411829 -0.881641 0.230446 0.000000 
-0.082514 -0.435402 -1.008937 76 73 57 0.963153 0.215631 0.160743 0.000000 
-0.117837 -0.294385 -0.581865 94 92 78 0.206408 -0.894435 0.396713 0.000000 
-0.121347 -0.235376 -0.412097 114 112 102 0.721990 -0.587742 0.365088 0.000000 
-0.098286 -0.385746 -0.894357 101 94 75 -0.926777 -0.358973 -0.110558 0.000000 
-0.100073 -0.373396 -0.807697 108 102 84 0.702398 -0.654398 0.279999 0.000000 
-0.124617 -0.238490 -0.417566 132 126 110 0.180245 -0.974332 0.134869 0.000000 
-0.093341 -0.446879 -0.999685 46 40 16 0.965066 -0.127900 0.228670 0.000000 
-0.084455 -0.438792 -0.993592 96 90 69 0.678167 -0.645484 0.351340 0.000000 
-0.119404 -0.234520 -0.418049 115 110 91 -0.818595 0.535059 -0.208841 0.000000 
-0.111451 -0.343950 -0.793085 67 67 54 0.081619 0.892272 -0.444061 0.000000 
-0.096407 -0.434945 -0.949457 119 115 102 0.459258 -0.752261 0.472426 0.000000 
-0.099325 -0.342069 -0.767996 93 90 75 -0.596414 -0.735416 0.321643 0.000000 
-0.110342 -0.342720 -0.797147 87 87 78 -0.131409 -0.951720 0.277419 0.000000 
-0.135932 -0.244155 -0.496917 110 111 102 0.652491 -0.622453 0.432213 0.000000 
-0.131459 -0.263590 -0.536718 60 60 50 0.987534 -0.145740 0.059462 0.000000 
-0.090968 -0.410936 -0.981764 95 90 72 0.792567 0.583439 -0.177305 0.000000 
-0.121608 -0.221279 -0.380790 86 81 65 0.911322 -0.390567 0.130189 0.000000 
-0.128672 -0.253609 -0.474864 90 88 74 -0.689032 -0.720945 0.073980 0.000000 
-0.121193 -0.202526 -0.337428 101 97 81 0.965438 -0.149027 0.213822 0.000000 
-0.092192 -0.373542 -0.836550 132 128 122 0.978322 0.203767 -0.036940 0.000000 
-0.114313 -0.330316 -0.688090 107 102 84 -0.060158 0.849202 -0.524631 0.000000 
-0.129163 -0.250763 -0.508672 62 64 53 -0.061303 0.979650 -0.191122 0.000000 
-0.103405 -0.427545 -0.938686 131 125 114 0.671354 0.728426 0.136674 0.000000 
-0.102513 -0.364291 -0.860850 81 83 77 0.733819 0.650396 -0.196200 0.000000 
-0.103850 -0.434359 -0.979925 97 93 77 -0.824127 -0.332487 0.458549 0.000000 
-0.122112 -0.196071 -0.313372 75 73 61 -0.999940 -0.010880 -0.000989 0.000000 
-0.126024 -0.269233 -0.518857 107 103 86 0.630659 0.740203 -0.233172 0.000000 
-0.094135 -0.397676 -0.885482 105 96 69 0.941374 -0.329546 0.072211 0.000000 
-0.099683 -0.339410 -0.761578 90 87 75 0.624567 0.766036 -0.152003 0.000000 
-0.110096 -0.432337 -1.005759 95 89 73 0.975568 -0.217984 0.027397 0.000000 
-0.104018 -0.322736 -0.679997 123 117 101 0.863292 -0.424794 0.272538 0.000000 
-0.115914 -0.281529 -0.547388 123 116 96 0.613240 -0.756798 0.226259 0.000000 
-0.102471 -0.416205 -0.909853 146 136 123 -0.265840 0.864359 -0.426863 0.000000 
-0.092385 -0.400678 -0.897520 107 96 68 0.991078 -0.053603 0.122031 0.000000 
-0.124392 -0.305847 -0.637230 69 68 56 0.842569 0.513834 -0.161406 0.000000 
-0.124628 -0.176599 -0.238887 112 109 94 -0.779549 0.514857 -0.356688 0.000000 
-0.123041 -0.180192 -0.250792 114 112 100 0.949911 -0.312519 0.001235 0.000000 
-0.109544 -0.364502 -0.803009 82 80 65 0.838651 0.493414 -0.230667 0.000000 
-0.110942 -0.346296 -0.740310 102 97 78 0.793939 0.517095 -0.319803 0.000000 
-0.125839 -0.217010 -0.359416 122 117 102 -0.547052 0.818318 -0.176323 0.000000 
-0.126009 -0.159086 -0.181277 96 94 79 -0.989367 0.119747 -0.082544 0.000000 
-0.092585 -0.442771 -0.964944 138 129 111 -0.725816 0.630104 -0.275970 0.000000 
-0.107395 -0.360295 -0.849805 70 70 56 0.013638 -0.953438 0.301281 0.000000 
-0.129111 -0.255346 -0.480737 77 76 63 -0.690187 -0.634711 0.347541 0.000000 
-0.111917 -0.405043 -0.920860 92 88 69 0.920108 0.248329 -0.302875 0.000000 
-0.104888 -0.343378 -0.725938 109 106 92 0.141357 -0.916721 0.373686 0.000000 
-0.113486 -0.332727 -0.755012 67 66 54 0.100158 -0.991218 0.086343 0.000000 
-0.125974 -0.151100 -0.165128 96 94 77 0.383829 -0.885644 0.261362 0.000000 
-0.103067 -0.378784 -0.819338 118 113 94 -0.014460 -0.991095 0.132368 0.000000 
-0.111832 -0.290020 -0.584402 89 84 68 -0.715327 0.691825 -0.098413 0.000000 
-0.091710 -0.406778 -0.915984 103 96 74 0.912848 -0.304283 0.272253 0.000000 
-0.116534 -0.307803 -0.627210 120 114 96 -0.084033 -0.955394 0.283128 0.000000 
-0.088136 -0.413498 -0.955193 94 87 66 0.885808 0.341390 -0.314319 0.000000 
-0.117110 -0.361337 -0.797862 127 126 116 -0.867658 -0.473931 0.150200 0.000000 
-0.110079 -0.377010 -0.833244 110 104 88 0.862474 0.327463 -0.385884 0.000000 
-0.094284 -0.338509 -0.745394 129 124 116 0.953692 0.300580 0.011133 0.000000 
-0.131846 -0.272240 -0.548032 87 83 67 0.938981 0.320199 0.125648 0.000000 
-0.107959 -0.313463 -0.647606 98 92 74 0.703189 -0.502755 0.502755 0.000000 
-0.110383 -0.453344 -1.040440 87 83 68 -0.995155 -0.093056 0.031749 0.000000 
-0.096552 -0.341661 -0.742719 108 101 80 -0.927198 0.222244 -0.301516 0.000000 
-0.122815 -0.198009 -0.332169 101 99 85 0.908361 0.412892 -0.066333 0.000000 
-0.129519 -0.241337 -0.437959 98 94 78 0.776244 0.619517 -0.116806 0.000000 
-0.118925 -0.236808 -0.426689 133 127 114 0.932576 -0.360459 0.019242 0.000000 
-0.097560 -0.328702 -0.720503 129 125 114 -0.991547 -0.051111 -0.119258 0.000000 
-0.130964 -0.273612 -0.565280 63 61 48 -0.983205 0.036242 -0.178871 0.000000 
-0.126127 -0.159138 -0.181211 97 95 80 0.989367 -0.119747 0.082544 0.000000 
-0.110209 -0.462713 -1.101495 88 83 66 -0.431179 0.851539 -0.298271 0.000000 
-0.117501 -0.250612 -0.485419 86 83 68 0.883203 0.439426 -0.163878 0.000000 
-0.128634 -0.185925 -0.313941 78 73 57 -0.110533 -0.944193 0.310292 0.000000 
-0.112875 -0.277925 -0.557176 80 77 64 0.985513 -0.167134 0.028816 0.000000 
-0.105071 -0.423249 -0.989162 70 66 45 -0.655785 0.751329 -0.073830 0.000000 
-0.126705 -0.211651 -0.332553 87 84 74 0.112382 -0.971032 0.210874 0.000000 
-0.103430 -0.347572 -0.738010 128 121 104 -0.429169 0.883239 -0.188952 0.000000 
-0.104787 -0.396808 -0.878116 116 109 94 -0.874569 -0.410942 0.257403 0.000000 
-0.099506 -0.335907 -0.723028 91 87 71 -0.923698 0.259208 -0.282122 0.000000 
-0.089572 -0.403219 -0.929268 95 90 72 -0.950989 -0.287016 0.115071 0.000000 
-0.113966 -0.260363 -0.507187 104 99 80 0.935835 -0.330055 0.123601 0.000000 
-0.130084 -0.182541 -0.264284 105 100 92 -0.936571 -0.266595 0.227513 0.000000 
-0.123157 -0.292664 -0.587454 111 105 88 -0.719991 -0.667572 0.189634 0.000000 
-0.132870 -0.240941 -0.451100 98 93 78 -0.831715 -0.537302 0.139846 0.000000 
-0.129096 -0.250932 -0.466565 99 94 78 -0.807825 -0.568026 0.157369 0.000000 
-0.101803 -0.419083 -0.915702 106 101 83 -0.072517 -0.826122 0.558805 0.000000 
-0.108288 -0.353464 -0.762414 106 99 82 -0.633648 -0.750252 0.188714 0.000000 
-0.097982 -0.332099 -0.723922 69 68 55 -0.999562 -0.027399 -0.011163 0.000000 
-0.125063 -0.179128 -0.243384 112 108 93 -0.461512 0.823792 -0.329202 0.000000 
-0.113909 -0.372020 -0.841855 78 76 64 0.914351 0.399945 -0.063291 0.000000 
-0.099955 -0.338537 -0.756723 69 69 55 0.659061 0.742373 -0.120505 0.000000 
-0.124422 -0.199266 -0.342660 73 70 54 0.810466 0.551968 -0.196154 0.000000 
-0.132244 -0.254166 -0.490453 98 93 76 -0.761472 -0.641624 0.092078 0.000000 
-0.124053 -0.188885 -0.276151 80 76 61 0.794796 -0.575121 0.193741 0.000000 
-0.128686 -0.288588 -0.619048 58 58 49 0.953740 -0.186982 0.235408 0.000000 
-0.126993 -0.274547 -0.535914 111 106 93 0.526955 0.728486 -0.437752 0.000000 
-0.106693 -0.346072 -0.794077 84 82 67 0.630318 0.734581 -0.251179 0.000000 
-0.107143 -0.445250 -1.051231 79 76 62 0.914140 -0.387018 0.120683 0.000000 
-0.117963 -0.240479 -0.447324 109 102 81 0.998107 0.005193 0.061278 0.000000 
-0.099124 -0.438264 -1.053512 87 84 69 0.061093 0.942399 -0.328865 0.000000 
-0.100441 -0.349360 -0.742347 101 98 84 -0.745595 0.449332 -0.492126 0.000000 
-0.125946 -0.206790 -0.369717 74 72 58 -0.429519 -0.799516 0.419867 0.000000 
-0.122683 -0.226157 -0.416117 66 63 47 -0.863918 -0.502469 -0.034228 0.000000 
-0.123152 -0.281635 -0.547045 88 86 73 0.564166 0.779086 -0.273391 0.000000 
-0.106411 -0.441649 -1.048487 91 88 68 0.902934 -0.390263 0.180011 0.000000 
-0.118326 -0.319858 -0.714914 63 64 52 -0.150841 -0.801994 0.577973 0.000000 
-0.082931 -0.436442 -1.046472 95 90 74 -0.301955 -0.911700 0.278615 0.000000 
-0.089604 -0.446577 -1.090166 112 105 91 0.017249 -0.892963 0.449799 0.000000 
-0.109848 -0.405050 -0.946258 88 84 68 0.902716 -0.406718 0.140297 0.000000 
-0.116907 -0.349605 -0.784651 101 95 79 0.600504 0.693144 -0.398682 0.000000 
-0.113680 -0.271497 -0.542547 82 79 65 -0.956407 -0.291723 0.013540 0.000000 
-0.119406 -0.323738 -0.685693 80 77 62 0.716682 0.657089 -0.233667 0.000000 
-0.096582 -0.388889 -0.897717 104 97 76 0.922925 0.384874 0.009010 0.000000 
-0.113663 -0.449226 -1.040288 127 126 120 -0.986943 0.107817 -0.119665 0.000000 
-0.130427 -0.172461 -0.246066 88 83 71 0.994688 -0.063349 0.081131 0.000000 
-0.090709 -0.417201 -0.929215 90 83 55 0.850809 -0.413781 0.323896 0.000000 
-0.102147 -0.334898 -0.746437 68 68 56 -0.374396 -0.861266 0.343582 0.000000 
-0.127137 -0.179407 -0.242948 81 81 68 0.236188 0.929195 -0.284274 0.000000 
-0.089398 -0.410580 -0.930415 113 104 77 0.968996 -0.107948 0.222247 0.000000 
-0.102254 -0.462559 -1.028022 102 100 82 0.588424 0.719549 -0.368790 0.000000 
-0.096501 -0.366990 -0.813228 92 85 65 0.979274 -0.024688 0.201028 0.000000 
-0.117442 -0.328708 -0.693405 94 90 73 0.595217 0.800760 -0.067087 0.000000 
-0.108474 -0.422609 -0.972626 83 82 70 0.888334 0.451813 -0.082021 0.000000 
-0.126914 -0.312297 -0.666384 108 104 89 0.863309 0.450488 -0.227504 0.000000 
-0.108916 -0.333672 -0.744738 79 78 66 0.330275 0.936904 -0.114585 0.000000 
-0.114056 -0.258589 -0.504087 80 77 59 -0.971526 -0.231549 -0.050230 0.000000 
-0.109890 -0.403719 -0.901092 117 111 100 0.877468 0.266401 -0.398849 0.000000 
-0.122655 -0.222032 -0.376351 110 108 97 0.426885 -0.833292 0.351274 0.000000 
-0.133297 -0.230165 -0.443173 71 68 56 0.698278 -0.692139 0.182626 0.000000 
-0.130982 -0.271707 -0.563424 77 78 71 0.956941 -0.256676 0.135578 0.000000 
-0.122402 -0.239772 -0.417058 117 115 100 0.351795 -0.813427 0.463224 0.000000 
-0.123906 -0.147904 -0.159032 100 94 75 -0.218926 -0.874214 0.433384 0.000000 
-0.093029 -0.407034 -0.913197 98 89 62 0.812456 -0.551255 0.189826 0.000000 
-0.084730 -0.438558 -0.995953 117 109 80 0.762483 -0.497981 0.413080 0.000000 
-0.089648 -0.436902 -1.039695 78 73 57 0.355665 0.871607 -0.337347 0.000000 
-0.110562 -0.324644 -0.654483 130 126 119 0.498574 -0.813131 0.300402 0.000000 
-0.112851 -0.414626 -0.958083 106 105 100 -0.998466 -0.034720 0.043137 0.000000 
-0.128846 -0.194022 -0.290285 88 89 77 -0.753498 -0.531208 0.387373 0.000000 
-0.119578 -0.477396 -1.111711 112 103 82 -0.861735 -0.501859 0.074506 0.000000 
-0.121782 -0.210342 -0.358374 80 77 63 0.889090 0.456048 -0.039244 0.000000 
-0.112876 -0.407131 -0.945979 112 109 104 -0.986752 -0.028718 0.159672 0.000000 
-0.110344 -0.294170 -0.591519 80 78 65 0.813592 -0.484996 0.320698 0.000000 
-0.110926 -0.466050 -1.103971 97 91 70 -0.337647 0.900883 -0.272771 0.000000 
-0.113249 -0.282527 -0.561977 89 86 72 -0.898746 0.202473 -0.388922 0.000000 
-0.085840 -0.428047 -0.969952 113 104 77 0.786321 -0.614447 0.064453 0.000000 
-0.120988 -0.288407 -0.564651 119 114 98 -0.190295 -0.911412 0.364851 0.000000 
-0.128730 -0.281016 -0.599757 76 76 67 -0.914319 0.289268 -0.283453 0.000000 
-0.086965 -0.423900 -0.994719 82 78 61 0.759786 0.642217 -0.101403 0.000000 
-0.083285 -0.430593 -1.023309 100 95 80 -0.546387 -0.830450 0.108698 0.000000 
-0.123938 -0.205388 -0.370815 92 94 83 0.571948 0.725996 -0.381845 0.000000 
-0.113544 -0.397558 -0.926148 88 90 82 -0.965279 0.250444 -0.074252 0.000000 
-0.125888 -0.188602 -0.317285 92 90 79 0.554310 0.820379 -0.140425 0.000000 
-0.085498 -0.421578 -0.977732 114 107 83 0.915594 0.305198 -0.261805 0.000000 
-0.099841 -0.323084 -0.697148 107 103 87 0.998386 0.001032 0.056785 0.000000 
-0.109052 -0.413687 -0.967785 87 82 66 -0.779289 0.591025 -0.208325 0.000000 
-0.107409 -0.384744 -0.915027 78 78 69 0.581692 -0.713521 0.390541 0.000000 
-0.121791 -0.215969 -0.368283 86 83 69 0.913437 -0.406977 0.001292 0.000000 
-0.130800 -0.279135 -0.568815 86 82 69 0.938776 0.342195 0.040030 0.000000 
-0.131227 -0.254361 -0.485858 83 82 68 0.789209 0.598247 -0.138746 0.000000 
-0.114710 -0.299901 -0.652034 68 68 57 -0.416818 -0.868498 0.268279 0.000000 
-0.114047 -0.329179 -0.680270 145 134 120 0.276789 0.811601 -0.514483 0.000000 
-0.104249 -0.304384 -0.645228 130 126 116 -0.791427 0.296587 -0.534491 0.000000 
-0.121170 -0.243009 -0.467993 75 72 54 0.705390 0.654436 -0.272284 0.000000 
-0.113890 -0.411022 -0.957364 119 117 113 0.998652 -0.026088 -0.044872 0.000000 
-0.108693 -0.333167 -0.698179 121 112 86 0.252147 -0.943828 0.213567 0.000000 
-0.102560 -0.321712 -0.669449 112 110 104 0.014133 -0.926332 -0.376443 0.000000 
-0.097803 -0.381497 -0.875308 100 92 70 0.827700 0.559709 -0.040478 0.000000 
-0.121653 -0.213385 -0.381300 100 100 87 0.914678 0.273969 -0.297162 0.000000 
-0.093572 -0.375879 -0.847213 100 101 95 -0.916990 -0.388324 0.091290 0.000000 
-0.106934 -0.461192 -1.033978 99 97 80 0.749953 0.593246 -0.292626 0.000000 
-0.126614 -0.240501 -0.419295 129 123 103 -0.151582 0.882062 -0.446083 0.000000 
-0.122312 -0.169344 -0.249559 119 121 113 -0.726468 -0.534508 0.431909 0.000000 
-0.100525 -0.409307 -0.898964 118 113 101 -0.161149 -0.962964 0.216176 0.000000 
-0.111918 -0.276143 -0.569227 102 100 84 0.646616 0.755613 -0.104578 0.000000 
-0.121850 -0.144632 -0.170772 94 92 76 0.761966 -0.643406 -0.073739 0.000000 
-0.094902 -0.386705 -0.884429 122 113 87 -0.893267 -0.447309 0.044596 0.000000 
-0.111918 -0.269723 -0.526701 114 112 103 0.862767 -0.466401 0.195203 0.000000 
-0.123447 -0.130827 -0.117204 84 85 75 0.342301 -0.885158 0.315159 0.000000 
-0.101215 -0.377821 -0.893181 76 75 63 -0.679880 -0.731408 0.052959 0.000000 
-0.109334 -0.301032 -0.614493 116 111 93 0.848910 -0.498047 0.176918 0.000000 
-0.117370 -0.261751 -0.486878 114 112 98 0.268442 -0.963234 0.010932 0.000000 
-0.107014 -0.441287 -0.991689 106 105 95 -0.915119 -0.399446 0.054774 0.000000 
-0.110227 -0.450249 -1.050474 84 82 70 0.925031 -0.350874 0.145620 0.000000 
-0.124133 -0.307154 -0.648717 67 66 54 -0.751763 -0.658324 0.038225 0.000000 
-0.111668 -0.300061 -0.607058 98 93 76 0.469077 -0.837527 0.280208 0.000000 
-0.113056 -0.387934 -0.895571 90 85 71 -0.961976 -0.255585 0.096326 0.000000 
-0.097827 -0.336803 -0.723249 92 88 74 -0.949791 0.265402 -0.165708 0.000000 
-0.101809 -0.430311 -1.024083 77 74 59 0.233743 -0.919200 0.316916 0.000000 
-0.124482 -0.322027 -0.715659 64 66 58 0.925806 -0.373244 0.059772 0.000000 
-0.106022 -0.477000 -1.115879 80 70 44 0.313373 0.947855 -0.058032 0.000000 
-0.086852 -0.435737 -0.974606 93 88 74 0.792376 -0.525604 0.309646 0.000000 
-0.097202 -0.404892 -0.971107 69 69 60 0.201568 0.832037 -0.516803 0.000000 
-0.102054 -0.457410 -1.088353 80 74 54 0.553473 -0.781840 0.287045 0.000000 
-0.096720 -0.397908 -0.950233 82 80 68 -0.347502 -0.912734 0.214846 0.000000 
-0.125971 -0.203905 -0.313867 105 101 84 0.370116 -0.872743 0.318330 0.000000 
-0.099789 -0.355687 -0.799990 88 87 76 0.608080 0.706422 -0.362226 0.000000 
-0.100704 -0.392721 -0.855656 94 92 82 -0.307647 0.925777 -0.219748 0.000000 
-0.134834 -0.211491 -0.366335 93 86 73 -0.996438 0.080618 -0.024723 0.000000 
-0.124484 -0.133951 -0.124534 99 96 90 -0.412208 0.876878 -0.247325 0.000000 
-0.110754 -0.421112 -0.960979 107 104 94 -0.901778 -0.431745 0.019805 0.000000 
-0.114989 -0.264150 -0.512160 77 75 61 0.941051 -0.130964 0.311883 0.000000 
-0.118810 -0.227048 -0.429369 137 133 123 -0.634842 -0.661362 0.399470 0.000000 
-0.092735 -0.437141 -0.969805 76 68 40 -0.920566 0.355577 -0.161626 0.000000 
-0.128367 -0.170103 -0.220011 86 86 77 0.282616 0.953008 -0.109103 0.000000 
-0.124086 -0.142107 -0.150836 80 81 76 0.786191 -0.556163 0.269416 0.000000 
-0.105118 -0.481565 -1.102582 92 86 62 -0.078975 0.996383 0.031374 0.000000 
-0.103115 -0.336857 -0.712697 118 110 88 0.598526 -0.756448 0.263730 0.000000 
-0.111490 -0.330482 -0.750434 67 66 56 -0.294002 -0.944327 0.147678 0.000000 
-0.097548 -0.348165 -0.759235 117 110 88 0.946257 -0.228690 0.228690 0.000000 
-0.106622 -0.399623 -0.937395 83 77 62 -0.331035 0.874115 -0.355443 0.000000 
-0.117869 -0.269954 -0.514181 124 117 100 0.413667 -0.859627 0.299870 0.000000 
-0.127501 -0.175564 -0.279092 97 99 87 0.091439 -0.959463 0.266589 0.000000 
-0.114425 -0.346975 -0.800430 71 68 54 0.711372 -0.657743 0.247639 0.000000 
-0.123249 -0.175126 -0.248575 83 80 64 0.984858 -0.172722 -0.014870 0.000000 
-0.106957 -0.302488 -0.631149 79 76 61 -0.956021 0.108253 -0.272590 0.000000 
-0.124915 -0.219753 -0.405032 63 63 48 0.680953 0.702669 -0.206302 0.000000 
-0.109988 -0.417426 -0.976300 80 79 67 0.972099 -0.174545 0.156708 0.000000 
-0.123270 -0.207955 -0.341281 106 101 81 -0.843420 0.531567 -0.077963 0.000000 
-0.122723 -0.263673 -0.493902 91 90 79 -0.050775 -0.967192 0.248919 0.000000 
-0.122048 -0.237221 -0.416447 106 100 83 0.693627 -0.719159 0.041135 0.000000 
-0.127403 -0.277886 -0.537012 122 120 104 -0.625518 -0.766522 0.145504 0.000000 
-0.121146 -0.325323 -0.691345 107 101 88 0.832406 0.522323 -0.185146 0.000000 
-0.095975 -0.350628 -0.760665 87 85 73 0.914822 -0.394014 0.088619 0.000000 
-0.109761 -0.479213 -1.100671 98 89 62 -0.105611 -0.989954 -0.094005 0.000000 
-0.096935 -0.449642 -1.087394 81 75 58 0.542535 -0.784369 0.300701 0.000000 
-0.130647 -0.193677 -0.296273 100 95 81 -0.905304 -0.404078 0.130938 0.000000 
-0.089539 -0.415647 -0.974871 91 87 72 -0.825621 -0.563738 -0.023432 0.000000 
-0.113615 -0.346434 -0.758299 96 91 73 -0.717928 -0.695361 0.032441 0.000000 
-0.118339 -0.321327 -0.671762 78 78 68 0.441686 0.895603 -0.053002 0.000000 
-0.111067 -0.420616 -0.962594 105 103 93 -0.929239 -0.367252 -0.040515 0.000000 
-0.101294 -0.388770 -0.844178 120 114 94 0.098209 -0.749029 0.655217 0.000000 
-0.117534 -0.327977 -0.744783 73 69 57 0.307953 -0.897080 0.316879 0.000000 
-0.094990 -0.392228 -0.900593 106 99 77 0.863893 0.503147 -0.023055 0.000000 
-0.096519 -0.381484 -0.858318 80 77 60 0.918379 0.347763 -0.188786 0.000000 
-0.107938 -0.472282 -1.125736 88 85 70 0.212463 -0.539564 -0.814696 0.000000 
-0.121853 -0.177564 -0.250056 122 120 110 0.963706 -0.265723 0.025715 0.000000 
-0.100429 -0.343787 -0.733455 113 104 79 -0.781260 0.590934 -0.201071 0.000000 
-0.126738 -0.148622 -0.160891 133 129 115 0.437335 -0.848400 0.298254 0.000000 
-0.110474 -0.302895 -0.613663 99 97 86 -0.704639 0.653509 -0.276423 0.000000 
-0.130813 -0.276113 -0.566883 76 72 57 -0.966216 -0.222577 -0.129944 0.000000 
-0.132698 -0.202558 -0.328502 105 102 89 0.887295 0.444357 0.123511 0.000000 
-0.128167 -0.219786 -0.357472 115 111 96 0.417030 -0.780512 0.465711 0.000000 
-0.110652 -0.308433 -0.630073 116 108 83 -0.590685 0.776727 -0.218600 0.000000 
-0.093358 -0.413950 -0.988049 82 79 66 -0.103216 -0.936985 0.333776 0.000000 
-0.128149 -0.162704 -0.208927 66 68 59 -0.931207 -0.176776 0.318754 0.000000 
-0.118991 -0.247191 -0.454041 92 88 72 0.836574 -0.485306 0.254208 0.000000 
-0.135617 -0.230798 -0.433007 64 67 60 -0.987514 0.152898 -0.037937 0.000000 
-0.111833 -0.399310 -0.904550 117 109 93 -0.872830 -0.422143 0.244873 0.000000 
-0.122729 -0.197910 -0.310814 82 79 67 -0.938755 0.334986 -0.080767 0.000000 
-0.118490 -0.312375 -0.640094 117 110 92 -0.202559 -0.876771 0.436168 0.000000 
-0.100278 -0.410835 -0.899756 109 103 85 -0.016980 0.999843 0.004994 0.000000 
-0.108528 -0.479791 -1.138098 128 123 107 -0.593125 -0.805053 0.009633 0.000000 
-0.096686 -0.471553 -1.069691 58 52 29 0.284968 -0.933515 0.217586 0.000000 
-0.105319 -0.378630 -0.813541 114 110 96 -0.175548 -0.889349 0.422187 0.000000 
-0.092734 -0.445830 -1.007230 41 34 9 -0.577934 0.807343 -0.119116 0.000000 
-0.130252 -0.177184 -0.243737 118 111 96 0.920307 0.283725 -0.269323 0.000000 
-0.103848 -0.351320 -0.748277 122 113 89 0.239759 -0.946704 0.215098 0.000000 
-0.115110 -0.339412 -0.777790 66 65 50 -0.408837 0.905582 -0.113023 0.000000 
-0.121470 -0.216114 -0.366796 111 108 92 0.888905 -0.420448 0.181855 0.000000 
-0.108402 -0.470536 -1.142493 126 115 85 0.464575 -0.711016 0.527850 0.000000 
-0.110968 -0.368176 -0.824183 84 80 62 0.731255 0.612326 -0.300538 0.000000 
-0.117251 -0.225799 -0.414328 141 136 128 -0.731689 -0.672563 -0.110862 0.000000 
-0.113254 -0.322031 -0.712166 71 68 52 0.456350 0.873081 -0.171681 0.000000 
-0.111672 -0.478879 -1.260644 127 124 112 -0.996584 0.035631 -0.074501 0.000000 
-0.094242 -0.440156 -0.982953 50 42 14 0.871177 -0.451119 -0.193759 0.000000 
-0.129035 -0.222443 -0.425748 63 63 56 -0.047380 -0.988037 0.146761 0.000000 
-0.079184 -0.433508 -0.988773 140 138 128 0.936889 -0.058965 0.344618 0.000000 
-0.119839 -0.235614 -0.438132 85 81 66 -0.935957 -0.344548 0.072606 0.000000 
-0.112434 -0.390062 -0.901043 66 65 53 0.970831 0.234423 -0.050321 0.000000 
-0.131141 -0.259567 -0.501677 104 98 84 -0.827312 -0.551057 0.109048 0.000000 
-0.114198 -0.361691 -0.815612 84 81 68 0.741615 0.639430 -0.202822 0.000000 
-0.115208 -0.282139 -0.557289 120 114 95 0.728125 -0.653605 0.206483 0.000000 
-0.092752 -0.395705 -0.896579 112 105 78 -0.962171 -0.265383 -0.061629 0.000000 
-0.115245 -0.323677 -0.733226 82 77 66 -0.487495 -0.831063 0.267735 0.000000 
-0.120640 -0.213046 -0.367839 82 80 66 0.994124 -0.059267 0.090578 0.000000 
-0.126653 -0.208154 -0.324982 98 95 82 -0.106500 0.963636 -0.245079 0.000000 
-0.120333 -0.224384 -0.393153 86 82 65 -0.924143 0.357777 -0.133994 0.000000 
-0.091103 -0.408274 -0.978850 104 98 88 -0.718160 -0.655302 0.234149 0.000000 
-0.127477 -0.177178 -0.236615 80 78 66 -0.238295 -0.914187 0.327837 0.000000 
-0.099605 -0.459938 -1.106616 86 79 59 0.506677 -0.802106 0.316077 0.000000 
-0.109232 -0.387928 -0.869795 125 119 104 -0.974467 -0.196394 -0.108830 0.000000 
-0.103796 -0.423325 -0.944249 89 89 74 0.820490 0.517635 -0.242593 0.000000 
-0.112145 -0.414166 -0.955742 95 92 79 0.986221 0.079134 -0.145276 0.000000 
-0.094667 -0.400008 -0.889496 102 93 66 0.846972 -0.372792 0.379032 0.000000 
-0.122400 -0.129811 -0.115852 94 90 76 0.446098 -0.786754 0.426632 0.000000 
-0.101070 -0.360309 -0.773079 121 114 97 0.233657 -0.841470 0.487167 0.000000 
-0.088787 -0.448335 -1.073390 90 82 63 -0.269662 -0.959794 -0.077959 0.000000 
-0.120950 -0.222913 -0.405552 102 99 82 0.903501 0.398226 -0.158434 0.000000 
-0.109865 -0.344350 -0.734082 94 92 79 -0.460083 -0.761347 0.456808 0.000000 
-0.128335 -0.185232 -0.261752 97 96 85 0.481001 0.753514 -0.448168 0.000000 
-0.126056 -0.157911 -0.199574 82 77 64 -0.992997 -0.029956 0.114278 0.000000 
-0.112446 -0.355838 -0.770843 121 117 104 0.662963 0.308092 -0.682319 0.000000 
-0.106784 -0.313316 -0.652288 115 108 85 0.777696 -0.566314 0.272904 0.000000 
-0.111337 -0.338942 -0.781346 69 69 56 -0.003631 -0.962200 0.272321 0.000000 
-0.124870 -0.174624 -0.235371 107 102 84 -0.742536 0.644552 -0.182189 0.000000 
-0.110284 -0.449316 -1.036915 83 82 69 0.997167 -0.069470 0.028857 0.000000 
-0.102246 -0.411574 -0.905199 119 112 92 -0.350085 -0.721339 0.597588 0.000000 
-0.118935 -0.283989 -0.549283 124 120 108 -0.177349 0.956082 -0.233353 0.000000 
-0.103490 -0.419037 -0.921822 113 110 94 -0.719510 -0.595513 0.357308 0.000000 
-0.099318 -0.470050 -1.126684 88 83 63 0.211643 -0.975028 0.067286 0.000000 
-0.106370 -0.424387 -0.967291 89 87 73 0.827515 0.554075 0.090667 0.000000 
-0.120102 -0.149874 -0.201960 140 138 128 -0.172767 -0.945457 0.276155 0.000000 
-0.104327 -0.474298 -1.177212 119 116 102 0.636814 -0.676306 -0.370241 0.000000 
-0.104133 -0.359499 -0.823177 79 76 62 -0.881367 -0.472113 -0.017387 0.000000 
-0.114310 -0.335427 -0.680657 135 133 128 0.697355 0.567537 -0.437719 0.000000 
-0.107245 -0.387948 -0.878995 90 87 72 0.953359 0.300201 -0.031402 0.000000 
-0.134037 -0.253950 -0.517285 101 103 95 -0.853492 0.491315 -0.173667 0.000000 
-0.132537 -0.207521 -0.331686 132 132 124 -0.760737 -0.622978 0.182148 0.000000 
-0.111756 -0.339059 -0.783306 75 73 56 -0.146687 0.920633 -0.361827 0.000000 
-0.134944 -0.249903 -0.491172 86 85 70 0.892599 0.442829 0.084679 0.000000 
-0.124698 -0.288603 -0.554975 125 121 106 0.722065 -0.676841 0.143207 0.000000 
-0.113704 -0.315061 -0.646863 117 110 92 0.165128 -0.875324 0.454467 0.000000 
-0.111527 -0.385287 -0.851844 97 97 87 -0.882186 -0.470050 -0.028284 0.000000 
-0.126289 -0.160279 -0.223775 72 74 71 -0.959713 0.278304 0.038688 0.000000 
-0.125894 -0.240278 -0.479866 59 61 53 -0.517180 -0.828404 0.215110 0.000000 
-0.095724 -0.372037 -0.825325 91 86 67 0.993451 -0.113067 0.016466 0.000000 
-0.098661 -0.370190 -0.801239 102 96 77 0.771173 -0.612984 0.171879 0.000000 
-0.128267 -0.215828 -0.403425 56 60 56 -0.147678 -0.944327 0.294002 0.000000 
-0.129485 -0.178967 -0.254155 78 75 59 0.923951 0.356005 -0.139909 0.000000 
-0.117489 -0.333784 -0.762373 69 66 55 0.665217 -0.678165 0.312377 0.000000 
-0.122089 -0.302191 -0.607031 122 118 99 0.583522 0.733060 0.349463 0.000000 
-0.096956 -0.379239 -0.858844 101 94 69 0.940218 0.277509 -0.197432 0.000000 
-0.094286 -0.449085 -0.993274 70 64 39 -0.987395 0.145719 0.061785 0.000000 
-0.087454 -0.435956 -0.975234 91 81 53 -0.723076 0.575510 -0.382033 0.000000 
-0.104500 -0.421288 -0.928492 127 123 117 0.651150 0.683626 -0.329635 0.000000 
-0.115581 -0.316136 -0.695333 74 74 60 -0.271130 -0.856280 0.439629 0.000000 
-0.121523 -0.221173 -0.381037 86 81 65 -0.969854 0.196021 -0.144773 0.000000 
-0.105620 -0.351525 -0.744898 111 107 93 -0.302340 0.873595 -0.381343 0.000000 
-0.105280 -0.465968 -1.112289 84 77 57 -0.248544 0.920906 -0.300264 0.000000 
-0.122501 -0.336035 -0.706762 91 94 84 -0.878605 -0.416181 -0.234195 0.000000 
-0.101337 -0.358598 -0.767646 116 108 84 -0.577390 0.648090 -0.496589 0.000000 
-0.137021 -0.232000 -0.441456 110 107 97 0.955783 -0.289900 -0.049372 0.000000 
-0.116446 -0.300037 -0.588001 117 110 99 -0.144206 0.860866 -0.487970 0.000000 
-0.103895 -0.460421 -1.101487 86 80 61 -0.340732 0.847940 -0.406078 0.000000 
-0.120642 -0.267328 -0.505365 91 90 78 -0.244532 0.855103 -0.457169 0.000000 
-0.126436 -0.257714 -0.481346 91 87 71 -0.511054 -0.762499 0.396761 0.000000 
-0.112569 -0.478077 -1.094336 121 114 93 0.540108 0.795203 -0.275565 0.000000 
-0.119959 -0.168692 -0.270328 115 111 98 -0.785885 -0.595092 0.168079 0.000000 
-0.104413 -0.302740 -0.642945 85 83 67 -0.962998 0.246228 -0.109578 0.000000 
-0.100543 -0.458556 -1.099436 80 75 57 0.441712 -0.838160 0.319968 0.000000 
-0.112947 -0.233864 -0.423334 134 137 130 0.972321 0.143624 -0.184296 0.000000 
-0.096982 -0.365188 -0.797005 95 89 67 -0.846565 0.495952 -0.193286 0.000000 
-0.125449 -0.165259 -0.203443 125 122 110 -0.733877 0.522784 -0.433729 0.000000 
-0.104841 -0.411325 -0.967310 79 73 56 -0.592805 0.767988 -0.242440 0.000000 
-0.113363 -0.326262 -0.728330 76 73 55 -0.487610 -0.815840 0.310871 0.000000 
-0.103655 -0.355710 -0.759470 101 98 84 -0.023347 -0.962138 0.271561 0.000000 
-0.126851 -0.233395 -0.401147 130 122 104 0.106510 -0.973630 0.201743 0.000000 
-0.101017 -0.447028 -0.987217 126 122 103 0.684940 0.691210 -0.230403 0.000000 
-0.124055 -0.300906 -0.604638 119 116 99 -0.906371 -0.353528 0.231321 0.000000 
-0.122470 -0.195816 -0.307712 80 78 66 -0.987997 0.150322 -0.035572 0.000000 
-0.119665 -0.304739 -0.618786 118 110 90 0.479147 0.832692 -0.277564 0.000000 
-0.127185 -0.224533 -0.378883 120 116 100 -0.037241 0.848261 -0.528267 0.000000 
-0.112223 -0.244925 -0.467092 130 128 120 -0.940073 -0.166057 -0.297804 0.000000 
-0.108261 -0.477830 -1.114218 61 56 38 0.167508 0.982151 0.085562 0.000000 
-0.130381 -0.279121 -0.569916 91 86 69 0.938820 0.342907 0.032107 0.000000 
-0.105106 -0.419417 -0.925808 94 94 82 0.749180 0.585548 -0.309618 0.000000 
-0.131626 -0.227635 -0.438582 61 62 54 -0.467325 0.880246 -0.082305 0.000000 
-0.126462 -0.263724 -0.505354 104 99 84 0.581738 0.785424 -0.211401 0.000000 
-0.109018 -0.448919 -1.021815 88 86 72 0.951119 0.306935 -0.034104 0.000000 
-0.115001 -0.301251 -0.601920 112 106 90 -0.348918 0.936839 0.024284 0.000000 
-0.096552 -0.461097 -1.036876 43 38 12 0.869412 -0.492712 0.036851 0.000000 
-0.102003 -0.430110 -0.936196 127 127 117 -0.195233 -0.770172 0.607222 0.000000 
-0.129185 -0.258162 -0.483756 125 119 104 -0.748380 -0.627021 0.216268 0.000000 
-0.116720 -0.313127 -0.640671 100 97 82 -0.064914 -0.722713 0.688092 0.000000 
-0.086060 -0.416762 -0.990092 92 92 86 -0.927479 -0.274125 0.254240 0.000000 
-0.094337 -0.405076 -0.871185 127 124 119 -0.015134 -0.581952 -0.813082 0.000000 
-0.110691 -0.434486 -0.999290 105 103 93 -0.976304 -0.191796 0.100229 0.000000 
-0.100389 -0.382025 -0.904183 80 78 66 -0.687701 -0.708955 0.156365 0.000000 
-0.108464 -0.299050 -0.613777 78 76 64 0.877010 -0.480426 0.006654 0.000000 
-0.096713 -0.424450 -0.928759 122 114 93 0.292070 -0.748530 0.595313 0.000000 
-0.135410 -0.232220 -0.435224 70 72 64 0.979586 0.081531 -0.183748 0.000000 
-0.133224 -0.238541 -0.448192 72 73 64 0.891948 0.441073 -0.099416 0.000000 
-0.087248 -0.413344 -0.953666 95 89 68 -0.898651 -0.402446 0.174537 0.000000 
-0.131167 -0.242119 -0.446888 77 78 66 -0.877095 -0.470326 0.097455 0.000000 
-0.103292 -0.316513 -0.695405 64 64 50 0.750034 0.607922 -0.260538 0.000000 
-0.085617 -0.447354 -1.014833 67 53 18 0.297713 -0.913470 0.277381 0.000000 
-0.099161 -0.332891 -0.725809 85 81 65 0.991741 0.095161 0.085989 0.000000 
-0.106898 -0.418788 -0.927318 98 97 81 -0.830067 -0.517464 0.207896 0.000000 
-0.128147 -0.304426 -0.657666 80 77 63 0.973250 0.197672 -0.117092 0.000000 
-0.099079 -0.398477 -0.953296 67 65 49 0.302231 -0.876318 0.375131 0.000000 
-0.101873 -0.394452 -0.936702 69 66 50 0.308493 -0.831522 0.461957 0.000000 
-0.093911 -0.458150 -1.022179 52 46 20 -0.752542 0.530534 -0.390146 0.000000 
-0.096931 -0.359950 -0.805368 71 68 52 0.779638 0.619936 -0.088562 0.000000 
-0.128548 -0.289973 -0.604531 71 69 56 0.956649 0.281216 -0.075761 0.000000 
-0.126738 -0.210687 -0.334250 94 92 82 0.015836 0.997660 -0.066511 0.000000 
-0.101342 -0.469244 -1.046138 100 97 76 -0.479078 -0.843361 0.243365 0.000000 
-0.100297 -0.339365 -0.723230 100 95 78 0.794233 -0.475251 0.378590 0.000000 
-0.127231 -0.280862 -0.607834 94 92 80 0.440346 -0.897781 -0.009201 0.000000 
-0.114053 -0.466375 -1.085372 109 102 78 0.956591 0.210049 -0.202021 0.000000 
-0.134704 -0.212624 -0.372244 83 78 64 -0.899798 -0.436066 -0.014492 0.000000 
-0.090469 -0.430475 -0.959500 73 62 33 0.669304 -0.738993 0.076948 0.000000 
-0.116425 -0.279412 -0.535404 98 94 80 0.488119 -0.790978 0.368908 0.000000 
-0.111047 -0.339429 -0.722030 118 110 92 0.704328 0.709863 0.004151 0.000000 
-0.121929 -0.305130 -0.624961 78 76 62 -0.648923 -0.735241 0.195756 0.000000 
-0.092545 -0.449809 -0.991342 86 77 52 0.971923 -0.234931 -0.013118 0.000000 
-0.111006 -0.402559 -0.938402 89 85 70 0.953133 -0.237947 0.186863 0.000000 
-0.109444 -0.435475 -1.002709 99 94 78 0.977564 0.163135 -0.133248 0.000000 
-0.113198 -0.279646 -0.545539 85 83 73 0.728933 -0.623660 0.282322 0.000000 
-0.110494 -0.320531 -0.664341 114 106 83 0.298301 -0.906660 0.298301 0.000000 
-0.094811 -0.365993 -0.806721 126 120 103 0.991431 -0.113208 0.065181 0.000000 
-0.097358 -0.409435 -0.906573 96 88 69 0.706421 -0.658797 0.258757 0.000000 
-0.079787 -0.443778 -1.016570 125 115 85 -0.923038 0.377545 -0.073897 0.000000 
-0.123932 -0.210331 -0.383792 71 76 76 0.725995 0.664859 -0.175767 0.000000 
-0.124258 -0.211378 -0.383806 94 95 84 -0.791509 -0.600607 0.113073 0.000000 
-0.129533 -0.211611 -0.346488 88 84 68 -0.441534 -0.831216 0.337829 0.000000 
-0.125925 -0.306105 -0.648840 82 78 63 -0.850946 -0.518523 0.083816 0.000000 
-0.096853 -0.380549 -0.859544 85 81 61 0.929828 0.315553 -0.189332 0.000000 
-0.107834 -0.427615 -0.962206 119 107 85 -0.881516 -0.471132 -0.031049 0.000000 
-0.112390 -0.379148 -0.874318 85 81 65 -0.919034 -0.384175 0.088238 0.000000 
-0.130769 -0.266047 -0.527475 71 71 58 0.884772 0.462276 0.058985 0.000000 
-0.121772 -0.136152 -0.126177 106 103 86 0.436205 -0.813291 0.385075 0.000000 
-0.099872 -0.321406 -0.695723 71 72 65 -0.961130 -0.275483 -0.018366 0.000000 
-0.095214 -0.453121 -1.006927 63 55 28 0.884410 -0.335986 -0.323932 0.000000 
-0.086664 -0.446384 -0.999636 87 81 63 -0.764218 0.594741 0.249509 0.000000 
-0.129911 -0.232719 -0.412416 83 80 63 -0.784789 -0.585136 0.204260 0.000000 
-0.130309 -0.268251 -0.534419 68 70 61 -0.919328 -0.322697 0.225171 0.000000 
-0.094215 -0.397809 -0.874909 128 122 107 -0.747307 0.632812 -0.202686 0.000000 
-0.123274 -0.233591 -0.408275 125 118 100 0.519186 -0.696143 0.495814 0.000000 
-0.120206 -0.265002 -0.499333 109 104 88 -0.230054 0.948803 -0.216442 0.000000 
-0.125693 -0.174333 -0.230349 112 108 91 0.188668 -0.940587 0.282314 0.000000 
-0.112210 -0.397839 -0.916707 71 69 56 0.999691 0.009061 -0.023155 0.000000 
-0.096244 -0.338768 -0.744794 101 97 81 0.948062 0.311709 0.063377 0.000000 
-0.106335 -0.472188 -1.065945 109 105 83 -0.721672 -0.622020 0.303777 0.000000 
-0.096839 -0.379621 -0.858638 101 93 69 0.928947 0.316207 -0.192535 0.000000 
-0.124798 -0.306509 -0.643899 80 76 60 -0.837573 -0.530609 0.130094 0.000000 
-0.104755 -0.356115 -0.763912 116 110 94 0.350147 0.870015 -0.347089 0.000000 
-0.108022 -0.460388 -1.035825 93 90 75 -0.823517 -0.508325 0.251845 0.000000 
-0.109378 -0.452254 -1.029206 107 101 81 -0.902548 -0.293956 0.314636 0.000000 
-0.097095 -0.353991 -0.777515 93 89 71 0.963878 -0.187021 0.189637 0.000000 
-0.126370 -0.250851 -0.456248 92 90 75 0.263321 0.901764 -0.342759 0.000000 
-0.125668 -0.189822 -0.273334 109 104 89 -0.402567 0.881457 -0.246928 0.000000 
-0.102420 -0.407459 -0.896275 119 113 100 0.644811 0.533695 -0.547164 0.000000 
-0.128979 -0.293622 -0.632307 60 61 51 0.969271 -0.228138 0.092011 0.000000 
-0.107925 -0.469809 -1.066190 104 100 79 -0.818979 -0.464141 0.337413 0.000000 
-0.129762 -0.276506 -0.555143 93 88 70 -0.812128 -0.555030 0.179969 0.000000 
-0.102119 -0.424985 -1.007689 78 74 60 -0.537385 0.830504 -0.146560 0.000000 
-0.121094 -0.229268 -0.403240 115 110 92 0.907010 -0.216231 0.361353 0.000000 
-0.113233 -0.348783 -0.767970 105 99 82 -0.656612 -0.745544 0.114129 0.000000 
-0.094427 -0.396716 -0.878219 100 92 69 0.895769 -0.424461 0.132023 0.000000 
-0.100081 -0.423760 -1.013751 98 93 79 -0.364236 0.902546 -0.229659 0.000000 
-0.089078 -0.415479 -0.934642 107 97 69 0.975347 -0.176993 0.131804 0.000000 
-0.124742 -0.159325 -0.194443 100 94 75 -0.949893 0.293795 -0.106715 0.000000 
-0.094473 -0.437751 -0.963611 101 93 69 0.710460 -0.686223 0.156029 0.000000 
-0.130709 -0.250050 -0.470979 104 98 81 -0.745250 -0.619203 0.247366 0.000000 
-0.127730 -0.182930 -0.251553 123 121 110 -0.210565 -0.949578 0.232300 0.000000 
-0.100889 -0.325554 -0.700525 85 82 66 -0.989038 0.122319 -0.082711 0.000000 
-0.100453 -0.459636 -1.018968 103 101 86 0.682792 0.616662 -0.391820 0.000000 
-0.131089 -0.274481 -0.559215 86 80 65 0.928359 0.347963 -0.130658 0.000000 
-0.126073 -0.179705 -0.283569 66 66 55 -0.264454 -0.899736 0.347189 0.000000 
-0.117206 -0.247682 -0.458242 116 109 88 0.946987 -0.214541 0.239138 0.000000 
-0.108019 -0.296482 -0.630888 73 72 62 -0.768552 -0.638815 0.035255 0.000000 
-0.100804 -0.437191 -1.051972 80 77 64 0.074652 -0.962885 0.259384 0.000000 
-0.119145 -0.341673 -0.765200 65 66 58 -0.832817 -0.546133 0.090305 0.000000 
-0.130713 -0.207590 -0.331882 123 119 107 -0.602730 -0.785194 0.142083 0.000000 
-0.089019 -0.402701 -0.924638 104 97 73 0.972885 0.222620 0.062727 0.000000 
-0.114975 -0.364140 -0.839158 80 80 68 -0.961486 0.269517 -0.053903 0.000000 
-0.124066 -0.172867 -0.254787 85 83 71 -0.942536 -0.288643 0.168261 0.000000 
-0.116924 -0.212774 -0.370887 128 128 118 0.985471 -0.035983 -0.165986 0.000000 
-0.129806 -0.255837 -0.525057 73 70 56 -0.425725 0.827711 -0.365586 0.000000 
-0.120758 -0.475657 -1.113516 109 104 87 0.891642 0.282279 -0.353968 0.000000 
-0.088686 -0.411658 -0.932043 116 108 87 -0.980497 0.078585 -0.180141 0.000000 
-0.097028 -0.453760 -0.997041 112 108 88 0.149425 -0.835891 0.528165 0.000000 
-0.127937 -0.278351 -0.600789 44 45 40 0.639046 -0.662164 0.391354 0.000000 
-0.112103 -0.380615 -0.879455 76 75 62 -0.869433 -0.482386 -0.106723 0.000000 
-0.098954 -0.472423 -1.068097 64 58 34 0.312465 -0.945306 0.093608 0.000000 
-0.125125 -0.201192 -0.357146 65 69 69 0.788070 0.606770 -0.103809 0.000000 
-0.125331 -0.153480 -0.212864 96 97 83 0.825926 -0.450074 0.339530 0.000000 
-0.120510 -0.303977 -0.615255 87 85 72 0.406387 0.863380 -0.299039 0.000000 
-0.117963 -0.294683 -0.583330 89 88 76 0.112366 -0.932770 0.342512 0.000000 
-0.105310 -0.477732 -1.078207 93 89 69 0.171645 -0.975995 0.134058 0.000000 
-0.097055 -0.351671 -0.771071 92 87 68 -0.974589 0.191415 -0.116350 0.000000 
-0.130359 -0.181702 -0.269115 90 86 73 -0.985341 -0.142128 0.094354 0.000000 
-0.111829 -0.348372 -0.754817 103 98 79 -0.734730 -0.673624 0.080020 0.000000 
-0.101431 -0.436147 -1.053348 99 95 83 -0.220258 0.932941 -0.284793 0.000000 
-0.122997 -0.178685 -0.270187 66 65 53 0.963724 0.247010 -0.101108 0.000000 
-0.098970 -0.436674 -0.955657 124 120 110 -0.336656 -0.890269 0.306731 0.000000 
-0.101655 -0.347435 -0.740019 129 122 104 -0.661890 0.645384 -0.381288 0.000000 
-0.114770 -0.282599 -0.559232 93 89 75 -0.742689 0.633699 -0.216423 0.000000 
-0.118837 -0.346059 -0.781702 91 86 72 0.979045 0.186543 0.081689 0.000000 
-0.104766 -0.375107 -0.821486 88 87 75 -0.806451 -0.547400 0.223586 0.000000 
-0.100763 -0.331207 -0.708124 116 108 83 -0.926202 0.283125 -0.248979 0.000000 
-0.121694 -0.322020 -0.719659 72 71 56 0.919829 -0.375356 0.114119 0.000000 
-0.113497 -0.267421 -0.521299 108 103 85 -0.911549 0.340563 -0.230423 0.000000 
-0.112263 -0.458966 -1.056070 87 84 70 0.973835 -0.082906 -0.211596 0.000000 
-0.126562 -0.263279 -0.496486 126 121 105 0.578231 0.802352 -0.147920 0.000000 
-0.119756 -0.345870 -0.753573 118 116 109 0.589862 0.803309 0.082206 0.000000 
-0.128110 -0.282903 -0.572615 101 97 82 0.801582 0.572127 -0.173601 0.000000 
-0.121978 -0.263293 -0.492001 125 118 97 0.169583 -0.954741 0.244360 0.000000 
-0.098026 -0.375386 -0.860403 119 110 85 0.908316 0.383574 -0.166833 0.000000 
-0.100648 -0.346861 -0.788977 83 82 70 -0.367957 -0.925958 0.084913 0.000000 
-0.099440 -0.372277 -0.855659 87 85 75 0.868135 0.415063 -0.272147 0.000000 
-0.118665 -0.268858 -0.510087 124 118 101 0.438622 -0.791462 0.425674 0.000000 
-0.119242 -0.318162 -0.660644 84 83 72 -0.596737 -0.747122 0.292769 0.000000 
-0.105265 -0.306516 -0.648081 113 108 92 -0.919685 0.191897 -0.342572 0.000000 
-0.103184 -0.408496 -0.901751 130 123 105 -0.697692 -0.697692 0.162643 0.000000 
-0.101556 -0.330071 -0.696214 107 105 95 -0.723998 0.559078 -0.404053 0.000000 
-0.119046 -0.203651 -0.329645 103 105 103 0.830587 0.517788 -0.204989 0.000000 
-0.091003 -0.400170 -0.911951 104 98 73 -0.899641 -0.428466 0.084040 0.000000 
-0.121169 -0.247298 -0.448672 106 100 82 0.342170 -0.877476 0.336087 0.000000 
-0.104306 -0.423068 -0.926545 153 147 128 -0.585262 -0.743267 0.324071 0.000000 
-0.129906 -0.167879 -0.240659 72 71 60 0.895127 -0.437155 0.087431 0.000000 
-0.094831 -0.421771 -0.927718 97 91 69 -0.539194 0.699450 -0.469083 0.000000 
-0.101444 -0.401102 -0.879954 103 99 85 -0.109058 -0.879548 0.463144 0.000000 
-0.128112 -0.245137 -0.437345 126 122 106 0.433868 0.818468 -0.376654 0.000000 
-0.086938 -0.453132 -1.020131 46 41 15 0.512845 -0.763569 0.392367 0.000000 
-0.128360 -0.218508 -0.356419 148 135 124 0.062870 -0.918979 0.389262 0.000000 
-0.118030 -0.304783 -0.671057 70 69 56 0.328789 0.907457 -0.261570 0.000000 
-0.095651 -0.396256 -0.935245 78 76 61 -0.686567 -0.707879 0.165933 0.000000 
-0.098161 -0.408029 -0.897317 125 117 99 0.388330 -0.813416 0.433076 0.000000 
-0.118607 -0.241372 -0.444097 89 84 66 -0.891672 0.414562 -0.181825 0.000000 
-0.120860 -0.197710 -0.308019 127 123 114 -0.961921 0.226411 -0.153122 0.000000 
-0.098315 -0.468877 -1.036242 120 117 93 -0.394709 0.910759 -0.121342 0.000000 
-0.121508 -0.131077 -0.121357 94 91 77 -0.210696 -0.976423 0.046955 0.000000 
-0.126873 -0.164446 -0.200419 114 110 94 -0.979808 0.031912 0.197380 0.000000 
-0.116813 -0.268227 -0.512234 121 115 96 0.536980 -0.799991 0.267707 0.000000 
-0.100954 -0.462078 -1.020159 123 120 102 0.919110 0.376188 -0.117128 0.000000 
-0.134786 -0.250932 -0.496574 88 87 74 0.987397 0.157575 -0.014737 0.000000 
-0.111993 -0.460057 -1.090702 95 90 71 0.591825 -0.751347 0.291925 0.000000 
-0.119487 -0.236237 -0.423922 92 87 70 0.925754 -0.375306 0.046090 0.000000 
-0.102134 -0.395091 -0.939040 71 67 52 -0.550673 0.677880 -0.487070 0.000000 
-0.105520 -0.442898 -0.989134 94 93 80 0.798493 0.561560 -0.216932 0.000000 
-0.125472 -0.222686 -0.372292 102 96 79 -0.073101 0.955440 -0.285991 0.000000 
-0.108285 -0.298273 -0.611029 114 109 91 0.873352 -0.453556 0.177606 0.000000 
-0.099448 -0.473844 -1.044437 91 85 67 -0.363227 -0.893983 0.262413 0.000000 
-0.102241 -0.372070 -0.872754 92 90 79 0.773836 0.609643 -0.171795 0.000000 
-0.095225 -0.391708 -0.903803 102 95 75 0.871237 0.490324 -0.022963 0.000000 
-0.101351 -0.415911 -0.913717 122 114 90 -0.261202 0.796119 -0.545865 0.000000 
-0.105657 -0.318131 -0.666186 116 110 92 -0.804019 0.573444 -0.157210 0.000000 
-0.120025 -0.216494 -0.367577 90 88 78 0.917790 -0.382756 0.105635 0.000000 
-0.091182 -0.452221 -1.005365 84 78 58 0.904299 -0.373041 0.207568 0.000000 
-0.134958 -0.230190 -0.424117 97 90 80 0.979337 0.186135 -0.079077 0.000000 
-0.110670 -0.300918 -0.610158 98 92 76 0.644803 -0.683981 0.341174 0.000000 
-0.129294 -0.295494 -0.633097 62 63 56 0.992567 -0.113533 0.043839 0.000000 
-0.108816 -0.361368 -0.791839 96 91 73 -0.810440 -0.546932 0.209887 0.000000 
-0.129515 -0.227038 -0.436606 61 63 56 0.123720 -0.981185 0.148219 0.000000 
-0.105125 -0.404310 -0.895886 123 116 100 -0.791785 -0.569529 0.220712 0.000000 
-0.102217 -0.378664 -0.820187 117 112 91 0.256592 0.948983 -0.183280 0.000000 
-0.109428 -0.345400 -0.721551 112 107 94 0.886686 0.461507 0.028256 0.000000 
-0.112042 -0.372065 -0.867274 77 75 62 -0.949790 0.283738 -0.131878 0.000000 
-0.111403 -0.459557 -1.075501 99 94 75 0.814678 -0.579542 0.020747 0.000000 
-0.129882 -0.199062 -0.305725 84 83 71 0.664643 0.614670 -0.424772 0.000000 
-0.112284 -0.319258 -0.652905 119 113 96 0.184495 -0.964347 0.189729 0.000000 
-0.113638 -0.324783 -0.673957 118 110 87 -0.100131 -0.811210 0.576118 0.000000 
-0.090857 -0.412679 -0.927002 97 91 69 0.912755 -0.269314 0.307163 0.000000 
-0.113970 -0.273492 -0.534428 121 116 99 0.919499 -0.366962 0.140925 0.000000 
-0.124056 -0.178089 -0.253715 84 80 65 0.965341 -0.248591 0.079499 0.000000 
-0.126575 -0.312845 -0.675820 81 78 63 -0.930908 -0.363818 -0.032368 0.000000 
-0.128048 -0.220689 -0.371875 90 88 74 0.355665 0.871607 -0.337347 0.000000 
-0.110865 -0.443564 -1.025108 104 101 89 -0.976746 -0.067067 -0.203641 0.000000 
-0.095478 -0.405978 -0.900735 119 111 89 0.716488 -0.696704 -0.035330 0.000000 
-0.123233 -0.194965 -0.292765 112 108 94 0.848813 -0.479632 0.222416 0.000000 
-0.116937 -0.330714 -0.694730 127 121 109 0.440829 0.896488 -0.044487 0.000000 
-0.087856 -0.407126 -0.923522 82 79 64 -0.954378 0.054645 -0.293557 0.000000 
-0.134619 -0.238903 -0.458030 89 83 71 0.999735 -0.009061 0.021142 0.000000 
-0.111813 -0.407487 -0.922471 105 104 96 0.936914 0.219218 -0.272278 0.000000 
-0.114216 -0.366803 -0.845371 85 81 68 0.969458 -0.178483 0.168211 0.000000 
-0.102891 -0.294719 -0.611911 130 130 123 0.981948 -0.178210 -0.063390 0.000000 
-0.105823 -0.340891 -0.789625 89 84 72 0.723503 0.675370 -0.142896 0.000000 
-0.125660 -0.183987 -0.257134 84 81 68 -0.574394 0.796839 -0.187402 0.000000 
-0.132669 -0.201174 -0.352808 70 69 57 -0.723530 0.634480 -0.271920 0.000000 
-0.104623 -0.415860 -0.916462 129 125 117 -0.552317 -0.735877 0.391703 0.000000 
-0.094501 -0.393036 -0.903720 98 92 73 0.774485 0.632147 0.023723 0.000000 
-0.095460 -0.427283 -0.934530 117 109 88 0.347196 -0.816466 0.461343 0.000000 
-0.096094 -0.368654 -0.820479 72 69 50 -0.977407 -0.153148 -0.145677 0.000000 
-0.107557 -0.446091 -1.008038 101 97 83 0.907523 0.360404 -0.215663 0.000000 
-0.132623 -0.191963 -0.294037 123 123 119 -0.953858 -0.232747 0.189695 0.000000 
-0.097492 -0.392461 -0.933557 90 89 77 0.414709 0.840374 -0.348982 0.000000 
-0.111962 -0.470918 -1.080143 109 103 81 0.969727 0.205700 -0.131597 0.000000 
-0.124078 -0.194415 -0.285830 85 82 69 0.502806 -0.845968 0.177549 0.000000 
-0.110337 -0.469038 -1.116523 92 85 57 0.488001 -0.714513 0.501325 0.000000 
-0.108416 -0.359171 -0.773640 124 118 99 0.450827 0.857634 -0.247424 0.000000 
-0.108284 -0.465581 -1.106397 90 82 55 0.299891 -0.902627 0.308755 0.000000 
-0.102876 -0.310026 -0.663545 68 68 59 -0.986965 -0.117298 -0.110189 0.000000 
-0.094531 -0.386392 -0.858275 89 84 64 0.980433 0.103782 0.167272 0.000000 
-0.130921 -0.245882 -0.443830 118 116 101 -0.793055 -0.460328 0.398951 0.000000 
-0.105429 -0.426518 -0.965300 89 87 73 -0.839188 -0.542351 -0.040226 0.000000 
-0.105274 -0.468612 -1.053979 103 101 82 0.746117 0.616769 -0.250809 0.000000 
-0.105942 -0.355313 -0.761654 108 103 87 -0.561978 -0.758429 0.330102 0.000000 
-0.114505 -0.478735 -1.131685 94 90 73 0.355159 0.904705 0.235311 0.000000 
-0.121466 -0.191612 -0.288424 87 85 78 -0.987055 0.153902 0.045129 0.000000 
-0.084521 -0.426284 -0.970315 122 112 81 0.908232 -0.417866 0.022409 0.000000 
-0.085096 -0.427041 -0.982124 104 95 68 -0.915904 -0.374497 -0.144469 0.000000 
-0.123975 -0.196472 -0.338902 65 69 65 -0.725632 -0.657555 0.202682 0.000000 
-0.109494 -0.432277 -0.998682 95 89 73 -0.993746 -0.003251 -0.111620 0.000000 
-0.130545 -0.271742 -0.538320 116 110 95 0.821394 0.519343 -0.235785 0.000000 
-0.100700 -0.434393 -0.957292 117 112 94 -0.598531 -0.798517 -0.064281 0.000000 
-0.125105 -0.231520 -0.398688 126 119 100 -0.380834 0.853379 -0.355963 0.000000 
-0.124447 -0.208994 -0.336821 91 86 69 0.635986 -0.733346 0.240261 0.000000 
-0.121938 -0.210279 -0.361454 80 78 64 -0.909111 -0.415631 -0.027709 0.000000 
-0.124196 -0.194877 -0.326595 67 67 53 0.959702 0.258431 -0.110385 0.000000 
-0.098160 -0.390291 -0.851829 114 107 85 0.487653 -0.827296 0.278881 0.000000 
-0.131499 -0.204167 -0.330032 84 80 64 0.911905 0.365048 -0.187535 0.000000 
-0.124618 -0.190028 -0.321220 94 93 79 -0.678229 -0.706165 0.203313 0.000000 
-0.133716 -0.248191 -0.477222 76 73 57 -0.834746 -0.524143 0.168741 0.000000 
-0.115034 -0.226640 -0.392513 101 105 102 0.559233 -0.807781 0.186411 0.000000 
-0.108576 -0.305260 -0.627631 89 84 67 -0.903392 0.404186 -0.143238 0.000000 
-0.119367 -0.224450 -0.394627 131 127 120 0.966733 -0.241367 0.084668 0.000000 
-0.108788 -0.305880 -0.625446 95 89 70 -0.859320 0.494145 -0.131869 0.000000 
-0.105658 -0.305404 -0.646214 76 73 60 -0.957438 0.070306 -0.279945 0.000000 
-0.095683 -0.362621 -0.790150 97 90 69 0.842099 -0.539322 0.001352 0.000000 
