ply
format ascii 1.0
comment Created by Open3D
obj_info Generated by CloudCompare!
element vertex 624
property float x
property float y
property float z
property uchar red
property uchar green
property uchar blue
property float nx
property float ny
property float nz
property float scalar_leaf3
end_header
0.386284 0.724228 -1.405676 91 82 58 -0.529808 -0.712500 0.460052 0.000000 
0.437639 0.500342 -1.748896 133 120 90 0.126859 0.744737 -0.655190 0.000000 
0.383201 0.751807 -1.357646 77 71 51 -0.885212 -0.407761 0.223898 0.000000 
0.397847 0.576813 -1.645417 66 57 34 -0.917046 0.318159 -0.240419 0.000000 
0.434570 0.521070 -1.718053 133 120 94 0.291073 -0.851658 0.435839 0.000000 
0.389136 0.644323 -1.527346 126 120 108 0.688506 0.575145 -0.441778 0.000000 
0.442059 0.471341 -1.819639 87 71 41 0.214948 0.931442 -0.293622 0.000000 
0.402928 0.771558 -1.330644 38 38 15 -0.420260 0.907290 -0.014401 0.000000 
0.440932 0.430976 -1.943465 72 62 38 -0.979323 -0.104445 -0.173255 0.000000 
0.393590 0.749781 -1.359894 97 90 63 0.981353 -0.192129 -0.005752 0.000000 
0.373672 0.829804 -1.237627 77 67 48 -0.967245 -0.020580 -0.253009 0.000000 
0.437833 0.426909 -1.931138 64 55 36 -0.846909 -0.531527 -0.014953 0.000000 
0.410411 0.570588 -1.676017 83 78 65 0.697819 -0.547929 0.461327 0.000000 
0.369302 0.749847 -1.366715 121 114 94 -0.783547 -0.311184 -0.537791 0.000000 
0.438353 0.439916 -1.930644 65 56 36 -0.944874 0.050273 -0.323552 0.000000 
0.414337 0.611767 -1.577945 122 110 83 0.387921 -0.748016 0.538506 0.000000 
0.417527 0.482320 -1.819905 70 62 43 -0.986127 0.071868 -0.149627 0.000000 
0.391150 0.718643 -1.405348 101 95 76 -0.176465 -0.815964 0.550512 0.000000 
0.402913 0.612788 -1.575521 85 80 62 -0.045901 -0.841510 0.538288 0.000000 
0.373863 0.812114 -1.253543 126 117 93 0.697562 0.694495 -0.176307 0.000000 
0.413268 0.515390 -1.732160 104 89 60 -0.087463 -0.827314 0.554888 0.000000 
0.367089 0.751044 -1.383075 79 73 54 0.149982 -0.981588 -0.118278 0.000000 
0.398185 0.771487 -1.320863 51 48 25 0.198204 -0.916871 0.346500 0.000000 
0.407396 0.529711 -1.705562 108 98 74 -0.075402 -0.835113 0.544886 0.000000 
0.393386 0.760571 -1.365893 79 74 49 -0.823836 0.557429 0.102799 0.000000 
0.445790 0.429284 -1.921954 82 67 40 -0.424928 -0.851401 0.307493 0.000000 
0.380158 0.743048 -1.370553 92 82 53 -0.141197 -0.863193 0.484727 0.000000 
0.435846 0.447546 -1.878763 61 53 31 0.155960 -0.722261 0.673807 0.000000 
0.421010 0.480343 -1.807194 70 59 38 -0.350836 -0.915038 0.199046 0.000000 
0.444792 0.487115 -1.782351 108 94 67 0.073955 -0.874904 0.478616 0.000000 
0.374949 0.839006 -1.202046 112 96 64 -0.884900 -0.415120 0.211253 0.000000 
0.383896 0.779890 -1.300954 101 95 73 -0.386943 -0.604290 0.696498 0.000000 
0.397960 0.585739 -1.620985 109 103 88 0.630513 0.637203 -0.443199 0.000000 
0.402676 0.775103 -1.314396 72 70 47 0.218357 -0.920524 0.323968 0.000000 
0.389626 0.678449 -1.471941 110 103 84 -0.707401 -0.663287 0.244203 0.000000 
0.368482 0.852174 -1.202717 79 70 42 -0.715181 0.594075 -0.368228 0.000000 
0.383322 0.701708 -1.451661 87 81 61 0.946931 0.321435 -0.001241 0.000000 
0.406681 0.595465 -1.638610 77 75 60 -0.773666 0.438139 -0.457684 0.000000 
0.403171 0.693985 -1.457642 108 96 67 0.785614 -0.426013 0.448691 0.000000 
0.365499 0.774424 -1.323404 125 121 109 0.979121 0.171192 -0.109612 0.000000 
0.387100 0.778278 -1.305086 81 75 55 0.259042 -0.881939 0.393803 0.000000 
0.434708 0.495611 -1.763783 88 78 50 -0.081090 -0.902988 0.421944 0.000000 
0.378115 0.796935 -1.285457 83 81 66 -0.745183 -0.612284 0.264216 0.000000 
0.372611 0.800889 -1.288391 83 76 57 0.818902 0.515490 -0.252327 0.000000 
0.377896 0.826845 -1.249106 90 81 60 0.790101 -0.591447 0.161030 0.000000 
0.434872 0.514291 -1.732399 104 96 71 0.189330 0.706523 -0.681894 0.000000 
0.373995 0.820696 -1.234047 134 119 95 0.477568 0.678649 -0.558000 0.000000 
0.475566 0.389311 -2.013301 75 66 39 0.324618 0.916144 -0.235168 0.000000 
0.388111 0.725440 -1.398293 115 105 78 -0.353575 -0.886193 0.299410 0.000000 
0.396316 0.639578 -1.533610 108 97 78 -0.168810 0.893104 -0.416974 0.000000 
0.396074 0.657177 -1.503401 108 98 73 -0.094951 -0.868733 0.486094 0.000000 
0.384049 0.781596 -1.294563 93 87 67 0.487530 0.771244 -0.409265 0.000000 
0.457232 0.431684 -1.908815 58 47 22 0.453614 0.597566 -0.661172 0.000000 
0.381868 0.760590 -1.330182 93 89 72 -0.278312 -0.755417 0.593201 0.000000 
0.416333 0.591364 -1.611770 125 113 89 -0.129360 0.850288 -0.510173 0.000000 
0.401355 0.773183 -1.319216 45 44 23 0.210704 -0.926248 0.312520 0.000000 
0.370774 0.854413 -1.200855 90 81 60 -0.760310 -0.622628 0.185106 0.000000 
0.393773 0.740852 -1.379410 84 75 45 0.998800 -0.048445 0.007215 0.000000 
0.445440 0.465832 -1.829118 88 76 46 -0.300260 -0.819034 0.488905 0.000000 
0.399450 0.588774 -1.636916 53 48 33 0.836210 -0.370074 0.404719 0.000000 
0.367655 0.742795 -1.353667 90 82 58 0.270168 0.961296 0.054034 0.000000 
0.382421 0.744138 -1.366823 102 93 65 0.154397 0.887422 -0.434332 0.000000 
0.413006 0.595346 -1.605527 118 106 78 0.046766 -0.772352 0.633471 0.000000 
0.372907 0.863302 -1.175130 110 105 90 -0.699745 -0.590565 0.401981 0.000000 
0.387819 0.718675 -1.405560 100 89 55 -0.300855 -0.722374 0.622625 0.000000 
0.410908 0.638132 -1.540173 118 111 94 0.428718 -0.747382 0.507563 0.000000 
0.444188 0.478316 -1.801816 93 80 53 0.242479 0.885124 -0.397190 0.000000 
0.382403 0.829798 -1.229677 136 129 117 0.888534 0.301173 -0.346124 0.000000 
0.402763 0.772717 -1.324265 59 57 33 0.394002 -0.894926 0.209451 0.000000 
0.375210 0.763396 -1.340727 131 126 111 -0.713235 -0.622665 0.321845 0.000000 
0.414846 0.633666 -1.558922 128 120 105 0.959946 -0.251383 0.123738 0.000000 
0.429635 0.473014 -1.822960 92 76 48 0.017547 -0.979150 0.202381 0.000000 
0.443022 0.448558 -1.880918 84 68 35 0.115418 0.910831 -0.396316 0.000000 
0.437289 0.508513 -1.740485 132 118 89 0.037328 -0.847485 0.529505 0.000000 
0.418618 0.613202 -1.581067 116 104 78 0.684909 -0.618894 0.384539 0.000000 
0.377916 0.830468 -1.224480 111 97 76 0.219388 -0.742185 0.633269 0.000000 
0.395243 0.598056 -1.611435 67 60 42 0.992873 0.106821 -0.052848 0.000000 
0.384495 0.797057 -1.271997 82 81 66 -0.020962 0.747630 -0.663784 0.000000 
0.395989 0.640341 -1.533329 112 102 80 -0.173074 0.905422 -0.387629 0.000000 
0.374784 0.855675 -1.185365 141 137 124 -0.854147 -0.351890 0.382893 0.000000 
0.388222 0.683129 -1.470609 99 92 72 0.810930 0.574226 -0.112507 0.000000 
0.394837 0.760754 -1.344597 54 52 29 0.999153 -0.032031 -0.025831 0.000000 
0.401400 0.708590 -1.440496 90 78 53 -0.834631 0.307332 -0.457097 0.000000 
0.367280 0.846458 -1.205789 141 137 117 -0.961234 -0.214926 -0.172732 0.000000 
0.402367 0.601383 -1.592986 112 100 79 -0.081114 -0.838175 0.539335 0.000000 
0.438121 0.431673 -1.910346 78 65 35 -0.110504 -0.856766 0.503727 0.000000 
0.384049 0.781596 -1.294563 93 87 67 0.487530 0.771244 -0.409265 0.000000 
0.384053 0.763139 -1.329654 121 112 87 -0.116504 -0.858678 0.499098 0.000000 
0.371463 0.791983 -1.308290 76 71 48 0.958152 -0.270248 -0.094393 0.000000 
0.384768 0.791283 -1.301476 51 48 22 -0.758853 0.351111 -0.548510 0.000000 
0.397544 0.588055 -1.633503 55 50 36 -0.929939 0.281671 -0.236377 0.000000 
0.371199 0.806615 -1.277488 102 93 69 0.953433 0.296595 0.054736 0.000000 
0.404020 0.607467 -1.583512 114 103 77 0.070242 0.789866 -0.609243 0.000000 
0.398518 0.725876 -1.405053 96 87 62 0.958094 0.137997 0.251023 0.000000 
0.446664 0.450828 -1.870352 96 78 41 -0.544185 -0.828746 0.130546 0.000000 
0.374088 0.829788 -1.250993 101 91 74 -0.653540 0.750469 -0.098398 0.000000 
0.383389 0.791755 -1.280165 94 88 66 -0.626750 0.745535 -0.226630 0.000000 
0.391458 0.701959 -1.434276 117 106 81 0.046747 -0.786196 0.616207 0.000000 
0.371232 0.833612 -1.232756 75 65 42 0.948452 0.039466 0.314453 0.000000 
0.424807 0.569839 -1.642687 126 113 87 -0.054514 -0.842867 0.535353 0.000000 
0.401852 0.687176 -1.461089 114 103 83 0.387161 -0.690301 0.611221 0.000000 
0.372020 0.862179 -1.179614 98 89 70 0.885312 0.386671 -0.258278 0.000000 
0.415070 0.532598 -1.703791 111 94 60 0.088186 -0.883256 0.460525 0.000000 
0.368001 0.743033 -1.356529 91 81 54 0.181566 0.866499 0.464987 0.000000 
0.441759 0.521647 -1.727586 127 117 98 0.480838 -0.571310 0.665132 0.000000 
0.371156 0.855109 -1.200976 91 82 58 0.217586 0.933515 -0.284968 0.000000 
0.406910 0.628433 -1.552206 118 107 86 -0.006661 0.875267 -0.483595 0.000000 
0.382215 0.746610 -1.364081 93 84 56 -0.421559 -0.809458 0.408736 0.000000 
0.374989 0.835722 -1.208584 142 132 105 -0.452875 -0.797770 0.398079 0.000000 
0.381143 0.732972 -1.381660 78 69 40 -0.023595 0.809171 -0.587100 0.000000 
0.373812 0.826034 -1.230879 109 102 80 0.618561 0.752557 -0.225923 0.000000 
0.425918 0.535948 -1.719839 44 36 16 0.869024 0.332589 0.366308 0.000000 
0.432706 0.492432 -1.771340 116 96 56 -0.057233 -0.922389 0.381999 0.000000 
0.407531 0.619865 -1.565147 118 107 79 -0.089109 0.720179 -0.688042 0.000000 
0.401487 0.630479 -1.546128 92 88 70 -0.091771 0.782241 -0.616179 0.000000 
0.482666 0.392319 -1.995591 94 83 55 -0.512845 -0.755341 0.407982 0.000000 
0.372381 0.737473 -1.372846 67 55 23 0.918685 -0.255270 0.301421 0.000000 
0.381668 0.725982 -1.402503 90 76 40 -0.639822 -0.758582 0.123214 0.000000 
0.418897 0.482220 -1.799714 69 60 37 0.343664 0.894121 -0.287130 0.000000 
0.395058 0.571567 -1.657306 114 109 102 0.994762 -0.102165 -0.003226 0.000000 
0.394445 0.746614 -1.379259 104 97 75 0.994631 0.027415 -0.099792 0.000000 
0.396870 0.574042 -1.642160 94 86 71 -0.741660 -0.551743 0.381472 0.000000 
0.473492 0.370258 -2.043139 123 115 90 0.234932 0.906166 -0.351668 0.000000 
0.398707 0.646603 -1.523004 115 103 76 -0.293963 0.714829 -0.634511 0.000000 
0.429136 0.439785 -1.894741 71 62 35 -0.920121 -0.367771 0.134618 0.000000 
0.375098 0.760720 -1.362167 70 66 49 0.955853 -0.033824 0.291892 0.000000 
0.384132 0.747691 -1.360286 78 72 50 0.248628 0.780287 -0.573878 0.000000 
0.396511 0.683834 -1.463475 112 101 71 0.361806 -0.695781 0.620472 0.000000 
0.398148 0.678950 -1.471183 115 104 76 -0.334163 0.794637 -0.506841 0.000000 
0.418277 0.600235 -1.599646 128 117 98 0.316723 -0.837833 0.444660 0.000000 
0.466973 0.393207 -2.014812 57 50 24 -0.534504 -0.778481 0.329049 0.000000 
0.442014 0.431569 -1.908969 77 63 33 0.001384 0.720806 -0.693136 0.000000 
0.395270 0.782286 -1.308304 95 87 62 -0.766417 -0.367816 0.526608 0.000000 
0.452573 0.443680 -1.889339 67 54 27 0.396056 0.918071 -0.016881 0.000000 
0.449517 0.522796 -1.735639 114 111 99 0.881410 -0.211835 0.422188 0.000000 
0.392310 0.718332 -1.407480 94 88 68 -0.179667 -0.810765 0.557118 0.000000 
0.396590 0.588196 -1.629449 65 59 45 0.988037 -0.146761 0.047380 0.000000 
0.439954 0.525716 -1.720304 129 120 101 -0.530328 0.731886 -0.427897 0.000000 
0.411743 0.491526 -1.781309 57 54 37 -0.677056 -0.724883 0.127041 0.000000 
0.377089 0.721982 -1.418801 79 66 35 0.880115 0.468561 -0.076471 0.000000 
0.398335 0.673082 -1.474351 122 113 93 -0.238912 0.818468 -0.522524 0.000000 
0.394001 0.720952 -1.399186 124 113 85 0.663681 -0.744653 -0.070850 0.000000 
0.364540 0.776565 -1.320820 121 116 103 0.945149 0.050151 -0.322765 0.000000 
0.398872 0.678188 -1.470545 112 104 82 -0.329851 0.801522 -0.498760 0.000000 
0.369800 0.837217 -1.225858 77 68 46 0.630464 -0.774975 -0.043920 0.000000 
0.384497 0.714390 -1.424668 83 77 57 0.626216 0.445866 -0.639575 0.000000 
0.386250 0.650657 -1.526749 124 115 98 -0.941309 -0.269538 0.203190 0.000000 
0.412071 0.596478 -1.603676 118 106 79 0.128144 -0.811577 0.570019 0.000000 
0.372940 0.767251 -1.332419 114 108 88 -0.644580 -0.699506 0.308558 0.000000 
0.411108 0.617731 -1.568573 111 102 81 -0.155837 0.754977 -0.636965 0.000000 
0.412542 0.604014 -1.589017 125 113 88 -0.204087 0.796399 -0.569295 0.000000 
0.377332 0.815382 -1.243577 134 126 105 0.343964 0.798316 -0.494348 0.000000 
0.381630 0.684871 -1.490255 111 106 94 0.952956 -0.211618 0.217010 0.000000 
0.396593 0.717206 -1.409806 72 63 34 0.255115 -0.793519 0.552489 0.000000 
0.374028 0.844692 -1.221729 90 81 57 0.931249 -0.272733 0.241644 0.000000 
0.387731 0.791992 -1.301358 101 95 73 -0.979675 0.027050 -0.198758 0.000000 
0.389870 0.703785 -1.431600 114 103 79 0.004156 0.677411 -0.735593 0.000000 
0.394857 0.714235 -1.415018 102 93 69 -0.168577 0.913716 -0.369736 0.000000 
0.430169 0.529755 -1.704138 101 94 71 0.107850 -0.743131 0.660397 0.000000 
0.390199 0.642436 -1.542130 54 53 42 0.938978 0.301078 -0.166349 0.000000 
0.412630 0.617304 -1.570249 122 110 82 0.255725 -0.776588 0.575774 0.000000 
0.401084 0.777459 -1.305990 83 80 56 -0.323849 -0.877282 0.354258 0.000000 
0.397482 0.599660 -1.620802 64 56 34 0.937612 -0.140574 0.317997 0.000000 
0.373822 0.811042 -1.265139 87 82 62 0.806992 0.556810 -0.196790 0.000000 
0.369788 0.792782 -1.292619 97 92 72 0.817732 0.556532 -0.146925 0.000000 
0.381259 0.826470 -1.241925 124 114 89 0.793944 0.530881 0.296342 0.000000 
0.369205 0.749209 -1.367981 86 79 55 0.059147 0.934528 0.350941 0.000000 
0.408785 0.626530 -1.553024 95 91 74 -0.066703 0.940382 -0.333515 0.000000 
0.387996 0.771178 -1.317721 72 66 42 -0.494850 0.748029 -0.442241 0.000000 
0.408879 0.523875 -1.719547 90 79 57 -0.177924 -0.777085 0.603724 0.000000 
0.394111 0.619248 -1.568225 60 58 43 0.513969 0.770144 -0.377776 0.000000 
0.373052 0.825954 -1.243067 97 91 69 0.967559 -0.166642 -0.189895 0.000000 
0.382765 0.804048 -1.263067 92 89 72 -0.180128 -0.981760 0.060838 0.000000 
0.404974 0.664932 -1.498266 114 103 74 0.701851 -0.488462 0.518469 0.000000 
0.409738 0.636897 -1.540968 122 110 85 0.221613 -0.829904 0.512003 0.000000 
0.403783 0.625327 -1.558557 112 100 78 -0.053558 0.877526 -0.476528 0.000000 
0.371187 0.859564 -1.185658 99 89 70 0.824111 0.483207 -0.295554 0.000000 
0.419089 0.503071 -1.777244 102 92 75 -0.332693 -0.621567 0.709203 0.000000 
0.392754 0.753931 -1.361690 82 75 49 0.981399 0.130772 -0.140549 0.000000 
0.424318 0.621664 -1.571816 112 109 96 0.941638 -0.136842 0.307557 0.000000 
0.390529 0.674194 -1.484276 84 78 57 0.623471 0.610027 -0.489030 0.000000 
0.406022 0.667371 -1.494310 112 101 77 0.659401 -0.612659 0.435706 0.000000 
0.386513 0.677372 -1.487436 85 79 59 0.844442 0.523987 -0.111149 0.000000 
0.426059 0.455278 -1.860830 82 71 45 0.632034 0.772486 -0.061627 0.000000 
0.394736 0.747166 -1.382133 106 100 79 0.992865 0.116481 -0.025515 0.000000 
0.387608 0.743112 -1.366966 93 85 58 -0.025676 0.877037 -0.479735 0.000000 
0.424204 0.462203 -1.844137 56 51 32 0.543239 0.773996 -0.325303 0.000000 
0.373529 0.792120 -1.281232 87 86 69 0.806782 0.298399 -0.509962 0.000000 
0.372722 0.860289 -1.185189 90 81 59 0.756891 0.577670 -0.305637 0.000000 
0.373131 0.827478 -1.225823 137 127 101 -0.451699 -0.812420 0.368702 0.000000 
0.371592 0.833984 -1.231612 119 107 84 -0.978285 0.064090 -0.197108 0.000000 
0.430643 0.523220 -1.715941 103 94 68 -0.128561 0.862368 -0.489687 0.000000 
0.391653 0.623664 -1.574358 75 69 52 -0.989260 -0.132748 -0.061179 0.000000 
0.371113 0.743259 -1.367507 83 72 41 0.893482 -0.123190 0.431873 0.000000 
0.390721 0.742331 -1.367503 98 88 60 0.058045 -0.811212 0.581864 0.000000 
0.414949 0.605195 -1.588265 120 108 85 -0.215708 0.821525 -0.527795 0.000000 
0.426027 0.570937 -1.637959 112 106 88 0.177729 0.843841 -0.506305 0.000000 
0.419954 0.576142 -1.631268 97 91 70 -0.049751 -0.777539 0.626864 0.000000 
0.429200 0.442887 -1.892730 60 52 36 0.948832 0.219171 -0.227338 0.000000 
0.429617 0.443804 -1.886348 73 62 41 -0.753444 -0.583879 0.302337 0.000000 
0.413410 0.565110 -1.647877 116 107 83 0.196373 0.722095 -0.663338 0.000000 
0.478061 0.367536 -2.034002 130 120 98 -0.357777 -0.924143 0.133994 0.000000 
0.402529 0.621580 -1.562068 82 78 62 0.092107 -0.738314 0.668138 0.000000 
0.454900 0.421727 -1.996919 50 45 28 0.835738 0.054779 0.546390 0.000000 
0.383167 0.707855 -1.435737 58 56 42 0.904133 0.350223 -0.244717 0.000000 
0.372477 0.787577 -1.300266 107 99 75 0.596499 0.606638 -0.525528 0.000000 
0.397551 0.687494 -1.456652 95 91 74 -0.234943 0.788848 -0.567909 0.000000 
0.376440 0.832337 -1.216313 126 116 92 0.618940 0.672039 -0.406542 0.000000 
0.421001 0.600776 -1.601034 120 115 101 0.647874 -0.644560 0.405957 0.000000 
0.400893 0.633036 -1.545182 114 103 78 0.165910 -0.744311 0.646896 0.000000 
0.400465 0.553364 -1.673661 92 86 69 -0.604391 -0.765976 0.219072 0.000000 
0.431066 0.462569 -1.840668 91 75 46 0.110317 0.863912 -0.491413 0.000000 
0.432708 0.479397 -1.805441 88 71 42 -0.157507 -0.909570 0.384545 0.000000 
0.380807 0.760469 -1.334860 120 110 90 -0.729448 -0.627738 0.271755 0.000000 
0.441754 0.428466 -1.949036 78 67 41 -0.973683 -0.072810 -0.215963 0.000000 
0.394300 0.641249 -1.530863 68 66 52 -0.073095 -0.892310 0.445466 0.000000 
0.427011 0.537331 -1.695276 131 113 78 -0.018057 -0.779249 0.626455 0.000000 
0.417791 0.587572 -1.616836 123 109 83 -0.061775 0.728368 -0.682396 0.000000 
0.392500 0.752947 -1.349618 83 75 47 0.742825 -0.656137 0.133021 0.000000 
0.400884 0.689980 -1.456714 111 103 83 -0.478214 0.711490 -0.514872 0.000000 
0.371151 0.746073 -1.359914 90 84 67 0.682397 0.398202 0.613000 0.000000 
0.383902 0.783356 -1.296070 77 74 58 0.518146 0.826893 -0.218569 0.000000 
0.399317 0.686726 -1.461416 113 100 70 0.474083 -0.678459 0.561194 0.000000 
0.389541 0.640082 -1.554406 50 49 37 -0.984808 0.092139 -0.147183 0.000000 
0.404080 0.698606 -1.449390 123 120 106 0.817415 -0.434999 0.377636 0.000000 
0.387712 0.788552 -1.304441 51 49 26 0.930896 0.115513 0.346538 0.000000 
0.392599 0.738317 -1.373754 97 87 56 0.341976 -0.750403 0.565639 0.000000 
0.374547 0.779142 -1.317729 78 75 59 0.775728 0.548608 -0.311891 0.000000 
0.416100 0.484400 -1.795150 77 69 46 0.436799 0.811198 -0.388799 0.000000 
0.384701 0.663237 -1.510971 104 95 77 0.852298 0.479512 -0.208941 0.000000 
0.416599 0.484661 -1.811524 74 66 45 -0.936374 -0.337949 -0.094840 0.000000 
0.402753 0.612971 -1.577409 98 89 68 -0.037516 -0.835081 0.548847 0.000000 
0.384876 0.745539 -1.361980 99 91 66 -0.265089 -0.957194 0.116221 0.000000 
0.409903 0.572113 -1.640667 113 100 73 -0.038103 -0.921040 0.387599 0.000000 
0.374180 0.792571 -1.315080 63 58 27 -0.605685 0.682018 -0.409875 0.000000 
0.391890 0.629020 -1.573523 69 64 48 0.980898 -0.133815 0.141181 0.000000 
0.421199 0.596429 -1.612839 121 111 92 -0.549047 0.714923 -0.432935 0.000000 
0.386451 0.783981 -1.300780 93 86 61 -0.736554 0.264526 -0.622507 0.000000 
0.406758 0.659041 -1.506189 114 102 76 0.493836 -0.753059 0.434773 0.000000 
0.377053 0.766457 -1.325581 127 119 99 0.644897 0.764168 0.012482 0.000000 
0.371689 0.848630 -1.212517 89 81 60 -0.414110 0.761111 -0.499223 0.000000 
0.427113 0.567834 -1.637508 139 125 106 0.440220 0.798201 -0.411195 0.000000 
0.373847 0.846584 -1.194371 139 126 101 -0.623647 -0.475720 0.620285 0.000000 
0.455171 0.463868 -1.904215 99 91 76 0.980250 0.076148 0.182513 0.000000 
0.402398 0.528695 -1.717825 81 73 53 -0.727189 -0.652446 0.213330 0.000000 
0.408394 0.591247 -1.607459 104 98 78 0.051938 -0.826801 0.560091 0.000000 
0.415525 0.606018 -1.586885 124 113 89 -0.305902 0.826719 -0.472187 0.000000 
0.420603 0.592108 -1.611440 119 108 84 -0.486143 0.728385 -0.482825 0.000000 
0.396312 0.746627 -1.372216 94 86 63 0.999991 0.002944 0.002944 0.000000 
0.397806 0.655960 -1.505875 108 97 76 0.031956 -0.818356 0.573822 0.000000 
0.382134 0.721850 -1.408701 92 79 48 0.790112 0.544089 -0.282295 0.000000 
0.464675 0.462567 -1.849689 135 125 108 0.710166 -0.520567 0.473998 0.000000 
0.389917 0.636549 -1.562857 72 66 51 -0.958009 0.171405 -0.229869 0.000000 
0.374511 0.819458 -1.239871 116 108 90 0.382938 0.876369 -0.292123 0.000000 
0.441221 0.425776 -1.945767 49 42 23 -0.986388 0.028707 -0.161910 0.000000 
0.408240 0.532780 -1.704545 92 81 59 -0.120678 -0.838930 0.530692 0.000000 
0.394879 0.624278 -1.558391 102 92 69 -0.309846 -0.839231 0.446863 0.000000 
0.411147 0.495091 -1.777709 93 84 63 0.903172 0.426685 0.047110 0.000000 
0.381798 0.794858 -1.274346 105 98 74 -0.223880 -0.795159 0.563560 0.000000 
0.399951 0.581819 -1.621081 116 109 95 -0.291270 -0.771946 0.565032 0.000000 
0.385580 0.682536 -1.480823 67 65 50 -0.840192 -0.345778 0.417749 0.000000 
0.422488 0.482904 -1.800313 64 55 34 -0.102511 -0.919863 0.378606 0.000000 
0.460732 0.379561 -2.023453 106 94 62 -0.303890 -0.853051 0.424212 0.000000 
0.404584 0.645104 -1.527378 115 104 85 -0.198383 0.945399 -0.258582 0.000000 
0.374750 0.834212 -1.240181 87 79 58 0.865927 -0.415463 0.278497 0.000000 
0.382952 0.705122 -1.451615 79 72 52 -0.980732 -0.177765 -0.081022 0.000000 
0.430564 0.531023 -1.703697 125 110 85 0.107664 -0.738900 0.665158 0.000000 
0.416512 0.577860 -1.631117 91 84 61 0.238198 0.783095 -0.574477 0.000000 
0.421474 0.495624 -1.771933 79 69 47 0.056179 0.883788 -0.464503 0.000000 
0.426107 0.544912 -1.680719 120 108 84 0.056432 -0.876759 0.477607 0.000000 
0.432000 0.477695 -1.810653 82 67 40 -0.266401 -0.877468 0.398849 0.000000 
0.405993 0.625576 -1.557754 118 105 80 0.041095 -0.916021 0.399019 0.000000 
0.455809 0.454116 -1.848881 118 102 74 0.138321 -0.915152 0.378635 0.000000 
0.386541 0.793130 -1.295481 92 87 64 0.986881 -0.119946 0.108070 0.000000 
0.402406 0.771817 -1.339653 35 34 13 -0.628313 0.761545 0.158971 0.000000 
0.419865 0.595374 -1.607110 127 120 98 0.545394 -0.596050 0.589296 0.000000 
0.407479 0.554410 -1.689312 44 38 14 0.819804 -0.571210 0.040501 0.000000 
0.443699 0.476457 -1.806228 106 89 60 -0.201961 -0.860205 0.468251 0.000000 
0.397433 0.667834 -1.487530 108 98 73 -0.158578 0.837351 -0.523159 0.000000 
0.386656 0.758877 -1.335573 117 110 91 0.034901 -0.808304 0.587730 0.000000 
0.393479 0.678939 -1.466504 104 95 75 -0.051982 -0.915682 0.398528 0.000000 
0.443884 0.469326 -1.826582 104 85 52 0.280675 0.884051 -0.373733 0.000000 
0.382084 0.721572 -1.412113 108 97 67 0.829352 0.442216 -0.341498 0.000000 
0.392466 0.738001 -1.374633 86 77 45 -0.398079 0.797770 -0.452875 0.000000 
0.445985 0.446634 -1.880430 64 55 27 -0.232659 -0.932045 0.277780 0.000000 
0.412635 0.489481 -1.783461 66 61 38 0.413698 0.909065 -0.049537 0.000000 
0.394982 0.595472 -1.606796 100 90 70 -0.746931 -0.526956 0.405477 0.000000 
0.413733 0.630350 -1.551708 123 113 92 0.663175 -0.508714 0.549008 0.000000 
0.371181 0.814018 -1.252223 138 132 117 0.815405 0.462540 -0.348097 0.000000 
0.414397 0.638945 -1.551641 136 127 113 0.912162 -0.326290 0.247981 0.000000 
0.398090 0.690358 -1.453660 113 102 80 -0.286224 0.818008 -0.498938 0.000000 
0.406992 0.618399 -1.566453 119 106 79 0.132482 -0.784474 0.605846 0.000000 
0.368742 0.745887 -1.362803 90 79 50 0.599311 0.391286 0.698371 0.000000 
0.434020 0.497703 -1.759661 99 86 56 -0.204565 -0.903857 0.375761 0.000000 
0.373359 0.856714 -1.192954 100 91 70 -0.079895 0.916766 -0.391352 0.000000 
0.424119 0.462388 -1.861639 86 75 49 0.937163 0.266763 0.224863 0.000000 
0.377280 0.735787 -1.376220 77 66 33 -0.344054 0.644082 -0.683216 0.000000 
0.401950 0.687543 -1.461909 112 99 68 0.468224 -0.649472 0.599126 0.000000 
0.405261 0.594532 -1.605716 114 104 78 0.060926 -0.814703 0.576668 0.000000 
0.482034 0.387460 -2.000652 85 77 51 -0.511187 -0.782100 0.356380 0.000000 
0.385641 0.767278 -1.355021 50 48 31 0.502162 0.542470 -0.673468 0.000000 
0.403197 0.771995 -1.336384 49 43 20 0.655642 -0.751166 -0.076709 0.000000 
0.382633 0.716156 -1.442232 82 74 55 0.969343 -0.118461 0.215268 0.000000 
0.386040 0.752745 -1.351775 84 79 59 -0.357163 -0.575702 0.735528 0.000000 
0.387903 0.789828 -1.310228 37 34 8 -0.585743 -0.791586 -0.174058 0.000000 
0.380946 0.727348 -1.401037 90 77 43 -0.779795 -0.561516 0.276803 0.000000 
0.369946 0.741653 -1.356196 86 77 56 -0.592576 -0.782445 -0.191400 0.000000 
0.384116 0.814088 -1.248029 125 119 99 0.735995 -0.558963 0.381931 0.000000 
0.380071 0.717431 -1.426272 79 72 54 0.944606 0.295949 -0.141894 0.000000 
0.426761 0.523598 -1.717387 124 107 71 -0.106373 -0.808723 0.578492 0.000000 
0.373875 0.734358 -1.379215 54 44 15 -0.393830 0.817955 -0.419341 0.000000 
0.426819 0.505642 -1.745475 87 76 47 -0.099203 -0.838195 0.536272 0.000000 
0.385160 0.733716 -1.378093 86 76 44 0.164454 -0.848939 0.502252 0.000000 
0.401669 0.585522 -1.644937 57 55 42 -0.786002 0.403535 -0.468360 0.000000 
0.402819 0.600871 -1.593088 94 86 67 -0.025995 -0.849628 0.526742 0.000000 
0.403516 0.643603 -1.527517 121 115 92 0.248662 -0.899009 0.360486 0.000000 
0.369930 0.743116 -1.419839 42 37 15 -0.972831 -0.044937 0.227115 0.000000 
0.393485 0.605065 -1.595624 76 68 54 -0.944971 -0.307882 0.110624 0.000000 
0.394296 0.672062 -1.479599 98 91 70 -0.325869 -0.775343 0.540974 0.000000 
0.380536 0.733533 -1.396856 59 50 28 0.820057 0.553131 -0.146809 0.000000 
0.470834 0.389942 -2.008228 64 56 28 0.467013 0.843089 -0.266644 0.000000 
0.445882 0.453846 -1.850896 69 60 32 -0.329563 -0.900018 0.285228 0.000000 
0.385539 0.761128 -1.328760 97 92 73 0.057580 -0.835606 0.546304 0.000000 
0.382304 0.791368 -1.283011 98 91 68 0.331602 0.889774 -0.313596 0.000000 
0.469975 0.431429 -1.899722 94 83 57 0.332480 0.841347 -0.426137 0.000000 
0.429658 0.492057 -1.771647 80 70 39 -0.092421 -0.906281 0.412448 0.000000 
0.428593 0.447667 -1.896646 72 68 56 0.975463 -0.154417 0.156928 0.000000 
0.440091 0.425818 -1.941698 54 45 24 0.986896 -0.040494 0.156191 0.000000 
0.388952 0.651052 -1.536350 63 59 43 0.994404 0.009760 0.105188 0.000000 
0.378138 0.823464 -1.231922 136 125 98 -0.275336 -0.865559 0.418328 0.000000 
0.431591 0.455078 -1.859569 70 58 35 -0.102376 -0.984012 0.145735 0.000000 
0.407367 0.527995 -1.711330 71 66 48 -0.009339 -0.879230 0.476305 0.000000 
0.379903 0.787887 -1.291166 105 99 79 0.734756 0.599108 -0.318125 0.000000 
0.388202 0.750907 -1.348903 90 82 56 0.066699 -0.827348 0.557715 0.000000 
0.387305 0.697024 -1.441788 108 100 81 0.482703 0.819179 -0.309747 0.000000 
0.449490 0.392064 -2.026684 59 51 26 -0.599154 -0.511390 0.616031 0.000000 
0.371040 0.841832 -1.218145 100 97 81 0.816607 -0.576995 0.015148 0.000000 
0.494251 0.390385 -1.995897 112 105 86 -0.352634 -0.886837 0.298613 0.000000 
0.380072 0.774812 -1.343268 45 43 24 -0.514490 0.635944 -0.575217 0.000000 
0.417412 0.477882 -1.820968 73 66 51 -0.902995 -0.414512 0.113049 0.000000 
0.459897 0.443650 -1.947707 61 56 41 0.498112 -0.773940 0.391026 0.000000 
0.461330 0.384113 -2.045326 58 51 27 -0.348726 -0.927639 0.133701 0.000000 
0.409136 0.571972 -1.641807 114 100 71 -0.054076 -0.927209 0.370620 0.000000 
0.399381 0.711932 -1.418005 132 126 105 0.589567 -0.738170 0.327896 0.000000 
0.418669 0.609088 -1.596956 110 98 73 -0.996124 0.081294 0.033602 0.000000 
0.377687 0.838640 -1.205127 115 101 75 -0.938638 -0.333236 0.088952 0.000000 
0.415995 0.604103 -1.590246 124 112 91 0.409738 -0.788705 0.458323 0.000000 
0.396422 0.640644 -1.531117 111 102 79 0.153942 -0.910942 0.382737 0.000000 
0.387159 0.748706 -1.352937 90 82 56 0.039009 -0.897216 0.439865 0.000000 
0.427898 0.471100 -1.818041 120 103 67 0.133216 0.880945 -0.454081 0.000000 
0.395421 0.652264 -1.513965 109 100 76 0.130849 0.872809 -0.470195 0.000000 
0.448121 0.456222 -1.844881 76 67 40 0.252488 0.849276 -0.463659 0.000000 
0.385723 0.689468 -1.485131 63 53 27 0.987880 -0.125987 0.090664 0.000000 
0.385854 0.783920 -1.290071 82 77 57 -0.576182 -0.569423 0.586320 0.000000 
0.431595 0.499679 -1.757967 121 102 65 -0.204651 -0.901335 0.381725 0.000000 
0.450999 0.464774 -1.829816 79 71 48 -0.060805 -0.827233 0.558559 0.000000 
0.463234 0.443677 -1.873479 122 104 75 0.133052 -0.882724 0.450661 0.000000 
0.412400 0.659277 -1.509810 132 129 117 0.878490 -0.400952 0.259793 0.000000 
0.368538 0.814951 -1.275576 137 131 117 0.880853 -0.421921 0.214662 0.000000 
0.422950 0.565002 -1.649469 124 109 84 -0.129019 0.859645 -0.494332 0.000000 
0.390433 0.679157 -1.472793 93 86 66 0.676058 0.704162 -0.217026 0.000000 
0.387108 0.770861 -1.315434 101 94 71 -0.571862 0.669129 -0.474595 0.000000 
0.371326 0.861706 -1.180723 118 116 103 0.757242 0.595992 -0.267169 0.000000 
0.374595 0.850207 -1.193771 91 78 41 -0.948832 -0.219171 0.227338 0.000000 
0.403857 0.547905 -1.680753 86 81 62 0.405467 0.680192 -0.610684 0.000000 
0.427459 0.495263 -1.764309 94 82 50 0.177921 0.912381 -0.368653 0.000000 
0.396650 0.659961 -1.497554 88 84 68 0.215166 0.822515 -0.526471 0.000000 
0.384515 0.770141 -1.310374 125 118 107 0.274714 -0.744746 0.608182 0.000000 
0.372234 0.801217 -1.284646 90 82 61 0.774783 0.583826 -0.242609 0.000000 
0.437124 0.503157 -1.748897 126 112 82 -0.139875 -0.732462 0.666285 0.000000 
0.468639 0.389785 -2.007040 63 54 28 -0.426711 -0.881476 0.202282 0.000000 
0.409923 0.611635 -1.576626 96 90 71 0.029238 -0.811689 0.583358 0.000000 
0.383075 0.740261 -1.375659 83 73 43 -0.185757 -0.658593 0.729212 0.000000 
0.383743 0.789350 -1.285808 95 88 66 -0.109284 -0.814530 0.569734 0.000000 
0.434643 0.500622 -1.752044 100 90 61 0.288645 0.825367 -0.485235 0.000000 
0.416874 0.485447 -1.811588 64 53 34 -0.966413 -0.188094 -0.175122 0.000000 
0.404634 0.606545 -1.583560 115 103 77 0.009549 -0.833478 0.552469 0.000000 
0.396018 0.784819 -1.305600 97 90 66 -0.953311 0.103308 0.283770 0.000000 
0.460452 0.475535 -1.839986 68 58 44 -0.861497 0.311736 -0.400803 0.000000 
0.393978 0.788789 -1.312397 34 31 8 0.753992 -0.595257 -0.277787 0.000000 
0.372333 0.850097 -1.209455 87 78 57 0.348190 -0.694746 0.629358 0.000000 
0.384544 0.761065 -1.332071 117 111 91 -0.124363 -0.832502 0.539883 0.000000 
0.408577 0.593849 -1.605891 115 104 78 -0.104578 0.755613 -0.646616 0.000000 
0.403898 0.531989 -1.704933 95 87 67 -0.433168 -0.711989 0.552663 0.000000 
0.386829 0.716458 -1.412098 103 93 64 0.265856 0.952539 -0.148291 0.000000 
0.449757 0.447876 -1.868322 94 77 44 -0.581331 -0.812174 0.049265 0.000000 
0.382870 0.714272 -1.424911 111 98 72 0.740748 0.399117 -0.540368 0.000000 
0.399403 0.772126 -1.322553 63 61 36 0.271531 -0.913331 0.303476 0.000000 
0.391182 0.752797 -1.346702 86 79 50 0.380245 -0.863634 0.330983 0.000000 
0.420895 0.537177 -1.696474 103 89 60 0.106226 0.813433 -0.571877 0.000000 
0.385780 0.806906 -1.266002 108 101 75 -0.948578 0.284975 -0.137805 0.000000 
0.417745 0.476463 -1.822466 67 60 40 0.907376 0.411946 -0.083484 0.000000 
0.389720 0.689658 -1.458118 72 69 53 0.460538 0.758822 -0.460538 0.000000 
0.438568 0.414305 -1.940574 65 53 23 -0.976016 0.173708 0.131219 0.000000 
0.394594 0.613735 -1.575803 58 56 42 -0.543844 -0.681060 0.490296 0.000000 
0.369605 0.823123 -1.233712 104 95 72 0.830300 0.475125 -0.291306 0.000000 
0.372328 0.851057 -1.209267 88 80 61 0.402935 -0.671559 0.621814 0.000000 
0.434743 0.474759 -1.854848 56 49 35 0.742225 -0.539055 0.398147 0.000000 
0.408670 0.608642 -1.580361 120 108 81 -0.006912 -0.758946 0.651117 0.000000 
0.383802 0.803443 -1.264246 113 106 85 -0.180189 0.949719 -0.256058 0.000000 
0.385619 0.770109 -1.311757 136 123 109 -0.548859 0.589390 -0.592768 0.000000 
0.451683 0.465246 -1.829321 106 90 67 0.012141 0.859328 -0.511280 0.000000 
0.400759 0.678613 -1.471087 113 105 84 -0.485300 0.708772 -0.511983 0.000000 
0.428732 0.497668 -1.760823 86 75 46 -0.113049 -0.902995 0.414512 0.000000 
0.387333 0.727885 -1.420534 50 44 26 0.985880 -0.021756 -0.166031 0.000000 
0.400922 0.596635 -1.633115 63 56 33 0.829100 -0.415340 0.374280 0.000000 
0.417072 0.543514 -1.687207 86 77 45 0.157201 0.927905 -0.338052 0.000000 
0.387637 0.678856 -1.466561 115 106 92 0.662947 0.688630 -0.293751 0.000000 
0.473146 0.433013 -1.896483 115 105 80 0.168444 -0.775451 0.608524 0.000000 
0.388529 0.765630 -1.325608 103 97 73 0.344910 -0.671839 0.655492 0.000000 
0.393486 0.753207 -1.348837 102 95 71 0.777115 -0.617251 0.122858 0.000000 
0.409412 0.616252 -1.569201 98 92 73 -0.102877 0.821567 -0.560752 0.000000 
0.388230 0.773747 -1.314240 72 65 41 -0.609683 0.599550 -0.518484 0.000000 
0.391047 0.743890 -1.366303 95 86 59 -0.326047 0.878052 -0.350311 0.000000 
0.373275 0.808298 -1.263646 134 128 113 -0.783720 -0.582766 0.214866 0.000000 
0.428009 0.502333 -1.753635 113 94 59 -0.096643 -0.889398 0.446800 0.000000 
0.367093 0.834888 -1.221022 145 137 119 -0.851182 -0.295056 0.434087 0.000000 
0.369026 0.811244 -1.256832 102 95 77 0.643935 0.698806 -0.311477 0.000000 
0.396693 0.676504 -1.474710 113 102 79 -0.237781 0.797266 -0.554822 0.000000 
0.411435 0.494169 -1.782712 79 71 50 -0.994620 -0.061259 0.083535 0.000000 
0.376373 0.855226 -1.187303 112 107 87 -0.968520 -0.022974 -0.247873 0.000000 
0.396586 0.571360 -1.649257 100 91 68 -0.818396 -0.533870 0.212630 0.000000 
0.376053 0.830409 -1.220663 142 131 104 -0.554189 -0.355916 0.752462 0.000000 
0.389801 0.640057 -1.553765 70 65 49 0.988444 -0.099902 0.114006 0.000000 
0.398994 0.550340 -1.678478 102 94 68 0.538096 0.788890 -0.296826 0.000000 
0.402695 0.659559 -1.501092 116 105 83 0.484298 -0.682039 0.547977 0.000000 
0.401268 0.702199 -1.440147 109 96 69 0.757352 -0.471497 0.451783 0.000000 
0.393809 0.758940 -1.354973 67 63 39 -0.986855 0.133550 -0.091003 0.000000 
0.377280 0.735787 -1.376220 77 66 33 0.344054 -0.644082 0.683216 0.000000 
0.426151 0.508948 -1.742406 99 82 52 0.168968 0.756551 -0.631728 0.000000 
0.371828 0.813781 -1.273676 103 94 73 0.857689 -0.471505 0.205067 0.000000 
0.426167 0.512647 -1.736078 102 89 58 0.148384 0.789883 -0.595035 0.000000 
0.378146 0.775548 -1.317631 88 84 68 -0.708740 -0.559357 0.429892 0.000000 
0.451071 0.387791 -2.043405 52 46 25 0.398944 0.908473 -0.124583 0.000000 
0.455564 0.461122 -1.837940 116 100 74 0.405823 -0.694041 0.594655 0.000000 
0.394187 0.666914 -1.488731 105 97 74 0.319031 0.710938 -0.626727 0.000000 
0.389639 0.636993 -1.554630 50 48 36 0.999235 0.015404 0.035944 0.000000 
0.431621 0.510533 -1.737967 132 111 72 -0.174991 -0.765394 0.619315 0.000000 
0.429492 0.440681 -1.897316 78 67 41 0.981973 0.161437 -0.098319 0.000000 
0.403929 0.678117 -1.478735 112 99 69 0.673568 -0.449602 0.586656 0.000000 
0.419733 0.584186 -1.612666 143 130 112 0.001379 0.740750 -0.671779 0.000000 
0.457080 0.448540 -1.856787 102 91 68 -0.056900 0.927610 -0.369191 0.000000 
0.376455 0.759686 -1.349900 123 112 89 0.508118 0.814553 -0.279856 0.000000 
0.377726 0.759773 -1.351920 113 103 78 0.598698 0.700955 -0.387587 0.000000 
0.388847 0.755568 -1.340802 109 102 80 0.089695 -0.952849 0.289885 0.000000 
0.448988 0.484025 -1.786814 103 96 78 -0.139599 0.836126 -0.530477 0.000000 
0.397827 0.655361 -1.506048 109 99 74 -0.060461 0.842234 -0.535711 0.000000 
0.369144 0.849741 -1.195347 109 107 91 -0.642879 -0.445841 0.622842 0.000000 
0.444017 0.516269 -1.737295 134 121 98 0.761128 -0.540417 0.358655 0.000000 
0.398667 0.769801 -1.341341 35 33 11 0.685350 -0.652946 -0.322423 0.000000 
0.404325 0.773040 -1.333947 48 47 22 -0.516931 0.838709 0.171317 0.000000 
0.442363 0.481675 -1.780906 140 124 101 -0.105615 -0.888578 0.446401 0.000000 
0.430411 0.504500 -1.745106 111 98 65 -0.134316 -0.868001 0.478051 0.000000 
0.378001 0.766984 -1.328838 131 121 101 -0.703682 -0.675597 0.219998 0.000000 
0.439257 0.503446 -1.748281 104 97 74 0.023827 -0.733035 0.679774 0.000000 
0.372526 0.825400 -1.235460 111 107 90 0.945357 0.187430 -0.266779 0.000000 
0.393312 0.618307 -1.571260 78 72 54 -0.717770 -0.603838 0.346678 0.000000 
0.453182 0.391494 -2.048752 56 49 27 0.310710 0.920675 -0.236254 0.000000 
0.415777 0.553151 -1.667891 106 97 72 0.126602 0.914036 -0.385370 0.000000 
0.419546 0.513705 -1.735072 80 70 46 -0.128144 0.811577 -0.570019 0.000000 
0.396920 0.580714 -1.639559 67 61 46 0.990918 -0.051313 0.124292 0.000000 
0.476591 0.373667 -2.045464 112 103 73 0.260630 0.920124 -0.292309 0.000000 
0.369508 0.847908 -1.194512 129 113 87 -0.485313 -0.599504 0.636448 0.000000 
0.392564 0.691915 -1.445264 132 121 103 -0.034280 -0.856989 0.514193 0.000000 
0.385258 0.759806 -1.331225 93 89 71 -0.012458 0.787648 -0.615999 0.000000 
0.412276 0.519621 -1.724681 92 80 59 -0.086846 -0.849952 0.519653 0.000000 
0.384701 0.718632 -1.415802 61 59 45 -0.407810 -0.887761 0.213475 0.000000 
0.392002 0.641379 -1.528104 107 100 85 -0.460846 -0.703747 0.540704 0.000000 
0.425371 0.572857 -1.635796 104 100 86 -0.239866 0.760361 -0.603585 0.000000 
0.403580 0.699383 -1.448971 123 114 99 0.818609 -0.430763 0.379898 0.000000 
0.396807 0.683309 -1.464535 113 101 75 -0.394424 0.688180 -0.608965 0.000000 
0.390402 0.629551 -1.562665 67 62 45 0.978706 0.201463 0.039339 0.000000 
0.400218 0.770042 -1.338358 38 36 13 -0.628757 0.766157 0.132920 0.000000 
0.379551 0.715972 -1.431414 85 80 63 0.997514 0.070277 -0.005245 0.000000 
0.466939 0.446799 -1.871202 108 102 88 -0.316140 0.825738 -0.467132 0.000000 
0.395581 0.598754 -1.610033 52 47 31 0.985139 0.171576 0.007954 0.000000 
0.422773 0.552316 -1.669321 103 96 74 0.065143 -0.877352 0.475405 0.000000 
0.399359 0.772263 -1.322078 64 62 37 0.237474 -0.925722 0.294354 0.000000 
0.403407 0.623939 -1.559418 115 104 78 0.077605 -0.853659 0.515018 0.000000 
0.381718 0.745518 -1.394876 37 34 15 -0.023864 -0.739793 0.672411 0.000000 
0.422550 0.501213 -1.753690 97 83 55 0.094922 -0.865628 0.491608 0.000000 
0.399687 0.769952 -1.332390 41 39 15 0.583837 -0.795044 0.164440 0.000000 
0.410874 0.553271 -1.695152 43 37 12 0.986495 -0.105908 -0.124948 0.000000 
0.397223 0.765286 -1.339007 60 53 21 0.890428 -0.455107 0.003957 0.000000 
0.415094 0.518664 -1.725989 106 90 60 -0.039336 -0.885729 0.462532 0.000000 
0.403333 0.621906 -1.561017 85 81 64 0.100932 -0.776738 0.621683 0.000000 
0.458932 0.449568 -1.932434 50 46 31 -0.475956 0.767091 -0.430160 0.000000 
0.416254 0.573229 -1.636413 120 104 72 -0.114277 -0.843336 0.525096 0.000000 
0.381073 0.718770 -1.422226 115 100 71 -0.837087 -0.511302 0.194566 0.000000 
0.385586 0.801056 -1.267056 64 62 50 0.816719 -0.481817 0.317525 0.000000 
0.435787 0.515638 -1.748964 50 40 24 -0.424994 -0.063817 -0.902944 0.000000 
0.391729 0.706686 -1.426080 87 84 67 -0.046850 -0.773740 0.631769 0.000000 
0.371087 0.737255 -1.364980 68 57 26 -0.997787 -0.035141 -0.056438 0.000000 
0.438101 0.557332 -1.675004 124 123 113 0.812007 -0.441898 0.381276 0.000000 
0.464599 0.401057 -2.000719 62 51 22 -0.408870 -0.873564 0.264030 0.000000 
0.373248 0.825314 -1.235766 119 109 83 -0.925992 -0.243233 0.288750 0.000000 
0.411111 0.644450 -1.536278 116 106 84 -0.702241 0.465381 -0.538774 0.000000 
0.433247 0.524927 -1.715901 134 119 86 0.201209 -0.885613 0.418574 0.000000 
0.389003 0.640755 -1.550159 77 71 55 0.999793 0.017082 -0.011053 0.000000 
0.399342 0.626655 -1.554653 111 100 74 0.047050 -0.904698 0.423447 0.000000 
0.411314 0.512683 -1.735321 87 77 56 -0.463741 -0.574235 0.674684 0.000000 
0.372600 0.849113 -1.204433 126 118 97 0.966735 -0.015729 -0.255296 0.000000 
0.414884 0.487336 -1.806995 68 64 47 -0.872206 -0.480488 -0.091589 0.000000 
0.387653 0.772114 -1.351863 37 36 21 0.853842 0.268263 -0.446082 0.000000 
0.401139 0.620481 -1.562405 83 79 62 0.026580 -0.770809 0.636512 0.000000 
0.373136 0.824960 -1.254375 80 76 60 0.870079 -0.423730 0.251825 0.000000 
0.382662 0.778539 -1.304038 105 100 79 0.447597 0.837491 -0.313474 0.000000 
0.445335 0.427636 -1.916892 76 64 30 0.331779 0.831807 -0.444993 0.000000 
0.374608 0.823519 -1.263035 92 86 66 0.324886 -0.897516 0.298183 0.000000 
0.381930 0.765202 -1.329241 86 83 68 -0.573949 -0.721958 0.386470 0.000000 
0.429312 0.520122 -1.722142 120 102 73 -0.071151 0.922279 -0.379920 0.000000 
0.421305 0.546046 -1.679271 129 112 76 0.163364 0.810823 -0.562031 0.000000 
0.402627 0.608510 -1.581438 112 101 75 0.047033 -0.739701 0.671290 0.000000 
0.389035 0.718854 -1.410228 89 83 61 0.087324 0.928318 -0.361386 0.000000 
0.421146 0.514240 -1.736155 117 96 59 0.163122 -0.821596 0.546234 0.000000 
0.421170 0.499763 -1.756747 106 90 60 -0.083530 0.937396 -0.338099 0.000000 
0.404539 0.669531 -1.489328 110 98 70 0.601035 -0.657957 0.453706 0.000000 
0.375746 0.837294 -1.207804 106 91 59 0.954251 0.286146 -0.086750 0.000000 
0.391436 0.641905 -1.560861 73 68 50 -0.930387 0.264813 -0.253484 0.000000 
0.393214 0.746318 -1.363281 101 94 69 0.870269 -0.426839 0.245847 0.000000 
0.391879 0.682416 -1.462875 111 102 78 0.297281 0.692583 -0.657231 0.000000 
0.459185 0.456923 -1.928257 109 103 84 0.472079 -0.766108 0.436142 0.000000 
0.392392 0.634070 -1.547536 57 55 41 -0.792895 -0.512112 0.330240 0.000000 
0.375806 0.831544 -1.215247 138 130 104 -0.677491 -0.611233 0.409145 0.000000 
0.389880 0.782109 -1.310285 84 77 49 0.806815 -0.277294 0.521688 0.000000 
0.377011 0.838849 -1.205942 120 106 85 -0.947138 -0.305145 0.099073 0.000000 
0.403158 0.538823 -1.706015 64 56 33 -0.835447 -0.480266 0.267158 0.000000 
0.403580 0.699383 -1.448971 123 114 99 0.818609 -0.430763 0.379898 0.000000 
0.407827 0.645845 -1.526190 114 106 88 0.502438 -0.772356 0.388617 0.000000 
0.409430 0.585180 -1.619165 117 105 79 -0.139814 -0.738157 0.659982 0.000000 
0.409991 0.521661 -1.721496 101 89 65 -0.178191 -0.769114 0.613768 0.000000 
0.397980 0.556268 -1.674289 104 99 86 -0.974020 0.022652 -0.225324 0.000000 
0.381395 0.695239 -1.468278 96 92 81 0.920261 0.266429 -0.286592 0.000000 
0.404162 0.678232 -1.477249 113 100 70 0.702876 -0.446983 0.553328 0.000000 
0.386246 0.663318 -1.526199 77 76 65 0.971194 -0.107071 0.212882 0.000000 
0.381590 0.789595 -1.277487 86 84 67 0.714027 0.558300 -0.422452 0.000000 
0.443976 0.421182 -1.966007 49 42 21 0.889740 -0.429777 0.153800 0.000000 
0.415354 0.614948 -1.574996 121 109 82 0.402311 -0.743864 0.533678 0.000000 
0.412893 0.591338 -1.610449 120 109 85 -0.188246 0.766759 -0.613713 0.000000 
0.480147 0.412698 -1.944349 101 87 68 -0.313793 0.946587 -0.074217 0.000000 
0.390604 0.680221 -1.470474 68 66 52 -0.608858 -0.748025 0.264102 0.000000 
0.435813 0.526098 -1.713969 109 101 78 0.376562 -0.806004 0.456682 0.000000 
0.372867 0.817325 -1.269067 98 90 70 0.647167 -0.573205 0.502605 0.000000 
0.404970 0.579015 -1.656106 57 51 30 -0.643676 0.637023 -0.424127 0.000000 
0.382014 0.752790 -1.351825 106 98 75 -0.711158 -0.467999 0.524625 0.000000 
0.412811 0.646151 -1.530802 111 108 99 -0.523576 0.769965 -0.364720 0.000000 
0.377004 0.863953 -1.174536 128 116 100 -0.833820 -0.462887 0.300799 0.000000 
0.438321 0.429834 -1.930659 74 63 36 0.900002 0.409351 0.149763 0.000000 
0.393569 0.635085 -1.542367 63 61 47 0.430914 0.670495 -0.603945 0.000000 
0.464345 0.435445 -1.893276 80 70 45 0.481332 0.815897 -0.320362 0.000000 
0.420050 0.531387 -1.708087 104 88 60 0.143053 0.836197 -0.529444 0.000000 
0.390602 0.676973 -1.473845 111 102 81 0.675370 0.723503 -0.142896 0.000000 
0.392809 0.623011 -1.563412 83 77 59 -0.723840 -0.624332 0.293709 0.000000 
0.395869 0.765345 -1.358969 30 27 7 0.776939 -0.595397 0.204619 0.000000 
0.395680 0.589777 -1.629750 45 44 35 0.982678 -0.183014 0.029142 0.000000 
0.385517 0.758509 -1.335103 119 112 92 -0.185745 -0.857399 0.479965 0.000000 
0.372410 0.780752 -1.329289 68 67 55 -0.859254 0.384119 -0.337839 0.000000 
0.410150 0.597675 -1.601799 119 107 81 0.083655 -0.854987 0.511858 0.000000 
0.423976 0.520786 -1.721242 102 87 60 0.042986 0.844477 -0.533864 0.000000 
0.389566 0.651113 -1.519008 101 93 72 0.719234 0.557200 -0.415006 0.000000 
0.373799 0.818894 -1.239012 141 133 114 -0.395890 -0.882909 0.252473 0.000000 
0.391102 0.733127 -1.385304 102 93 64 0.607332 -0.630885 0.482837 0.000000 
0.447956 0.444357 -1.895909 76 60 29 -0.048835 -0.960424 0.274228 0.000000 
0.390442 0.623993 -1.574838 83 78 67 0.992599 -0.052954 0.109287 0.000000 
0.397981 0.714001 -1.416658 92 81 53 0.535218 -0.759717 0.369284 0.000000 
0.430914 0.436854 -1.900986 53 47 28 0.817341 0.571137 0.075865 0.000000 
0.379880 0.817472 -1.239459 124 115 92 0.074351 0.915197 -0.396090 0.000000 
0.386755 0.753836 -1.340067 97 91 67 -0.240003 -0.918336 0.314735 0.000000 
0.374774 0.836707 -1.205667 108 95 67 0.756124 0.552116 -0.351347 0.000000 
0.370221 0.811260 -1.271466 109 101 84 0.985769 -0.103702 -0.132310 0.000000 
0.392772 0.602442 -1.597905 116 108 96 0.876602 0.430115 -0.215802 0.000000 
0.393293 0.756512 -1.355117 77 72 46 0.979069 -0.173210 0.106875 0.000000 
0.385302 0.813299 -1.248049 133 125 107 -0.908257 0.333854 -0.252213 0.000000 
0.404473 0.772452 -1.325974 38 38 17 -0.376116 0.914231 -0.150728 0.000000 
0.448038 0.443753 -1.884817 62 53 25 0.352816 0.915607 -0.192835 0.000000 
0.455049 0.441458 -1.896939 60 50 25 -0.591385 -0.759446 0.271118 0.000000 
0.382360 0.747465 -1.355063 94 85 63 -0.225206 -0.908090 0.353065 0.000000 
0.368902 0.824187 -1.235378 144 137 122 -0.983927 -0.156997 0.085090 0.000000 
0.454705 0.492291 -1.791908 127 119 109 0.997692 0.048017 -0.048017 0.000000 
0.396523 0.768336 -1.342245 46 44 19 -0.797516 0.500246 0.337226 0.000000 
0.391492 0.650291 -1.520343 78 72 53 0.633999 0.660485 -0.402250 0.000000 
0.396469 0.669978 -1.482878 107 95 74 0.187512 0.838554 -0.511533 0.000000 
0.371548 0.759641 -1.353870 96 91 71 0.778139 0.541661 -0.317966 0.000000 
0.369592 0.857417 -1.190799 90 80 56 0.580468 -0.801315 0.144744 0.000000 
0.444356 0.423528 -1.958634 68 57 30 0.971959 -0.133058 0.193885 0.000000 
0.457154 0.445983 -1.866402 98 84 59 0.140922 0.934461 -0.326993 0.000000 
0.416698 0.549923 -1.676372 107 94 67 -0.191053 -0.781025 0.594557 0.000000 
0.395373 0.737338 -1.390064 97 88 60 -0.950379 0.283120 -0.128932 0.000000 
0.382565 0.765855 -1.323473 121 114 98 -0.049203 -0.916234 0.397611 0.000000 
0.388718 0.769407 -1.319425 95 89 64 0.438099 -0.793752 0.421933 0.000000 
0.439225 0.432883 -1.912239 57 49 27 0.124730 0.875978 -0.465946 0.000000 
0.370168 0.847943 -1.209306 93 84 67 -0.400755 0.720699 -0.565675 0.000000 
0.371737 0.851574 -1.189334 127 114 90 -0.803149 -0.247003 0.542164 0.000000 
0.370683 0.738057 -1.365288 71 59 29 0.997063 0.026774 0.071754 0.000000 
0.405873 0.510810 -1.741446 81 76 54 0.900900 0.418926 -0.113488 0.000000 
0.413317 0.661635 -1.505754 94 90 77 0.821505 -0.259341 0.507811 0.000000 
0.384049 0.785355 -1.293243 70 68 53 0.709463 0.362105 -0.604600 0.000000 
0.414871 0.632212 -1.547357 122 117 102 -0.581852 0.481244 -0.655632 0.000000 
0.410545 0.632905 -1.547182 118 108 84 0.453279 -0.587089 0.670720 0.000000 
0.418411 0.606716 -1.597023 124 115 99 0.995056 -0.098317 0.014045 0.000000 
0.406419 0.623109 -1.554491 136 125 106 -0.001319 -0.887734 0.460355 0.000000 
0.386198 0.769351 -1.317635 78 71 50 0.483843 -0.792474 0.371322 0.000000 
0.422428 0.525513 -1.716153 116 97 60 0.129183 0.788460 -0.601368 0.000000 
0.395460 0.765992 -1.352790 43 40 14 0.934602 -0.338506 0.109239 0.000000 
0.398720 0.590616 -1.614536 64 61 47 -0.486830 -0.817686 0.307223 0.000000 
0.371517 0.813582 -1.258101 122 112 91 0.518403 0.792758 -0.320612 0.000000 
0.433580 0.452907 -1.867418 61 52 28 -0.009319 -0.882646 0.469946 0.000000 
0.443413 0.415619 -1.927593 59 47 21 -0.930728 -0.062049 0.360410 0.000000 
0.415885 0.611614 -1.579065 121 109 83 0.538419 -0.639689 0.548546 0.000000 
0.405175 0.522500 -1.721807 93 84 67 -0.438810 -0.675733 0.592309 0.000000 
0.370593 0.815270 -1.254077 115 105 84 -0.817215 -0.303897 0.489699 0.000000 
0.395307 0.661218 -1.496423 91 85 65 0.305846 0.843018 -0.442468 0.000000 
0.375263 0.863443 -1.176766 115 111 96 -0.770914 0.631540 0.082754 0.000000 
0.462933 0.434676 -1.898524 93 76 43 0.434087 0.851182 -0.295056 0.000000 
0.370612 0.860030 -1.176476 114 109 95 0.882523 0.249376 -0.398703 0.000000 
0.385435 0.796159 -1.313572 60 57 43 -0.306297 -0.935521 0.176017 0.000000 
0.391764 0.704109 -1.431160 116 104 76 0.098620 -0.693281 0.713888 0.000000 
0.400214 0.544589 -1.692269 81 76 58 -0.928935 -0.369242 0.027207 0.000000 
0.368245 0.738259 -1.411860 59 42 11 0.473325 -0.879424 0.050762 0.000000 
0.375922 0.766847 -1.362568 45 45 34 0.651856 -0.560899 0.510368 0.000000 
0.453018 0.470919 -1.808771 126 115 92 -0.487897 0.813162 -0.317370 0.000000 
0.392243 0.713514 -1.412575 121 111 89 -0.172522 -0.888705 0.424781 0.000000 
0.399294 0.640980 -1.532348 116 104 80 0.238316 -0.905014 0.352356 0.000000 
0.397126 0.572772 -1.651206 56 54 42 -0.994620 -0.083535 -0.061259 0.000000 
