ply
format ascii 1.0
comment Created by Open3D
obj_info Generated by CloudCompare!
element vertex 619
property float x
property float y
property float z
property uchar red
property uchar green
property uchar blue
property float nx
property float ny
property float nz
property float scalar_leaf4
end_header
0.468682 0.400434 -1.862527 114 101 81 0.741563 -0.111012 -0.661634 0.000000 
0.490209 0.426812 -1.844815 120 106 82 0.836065 -0.445380 -0.320361 0.000000 
0.474813 0.413210 -1.861985 104 92 64 -0.676251 0.358593 0.643503 0.000000 
0.487885 0.405337 -1.820448 114 99 66 -0.925905 -0.032556 0.376352 0.000000 
0.448724 0.409223 -1.920197 127 107 61 -0.682326 0.423341 0.595998 0.000000 
0.415318 0.394813 -1.976195 99 91 64 0.580879 0.232040 -0.780216 0.000000 
0.418153 0.387760 -1.991545 92 82 53 0.206731 0.929586 -0.305174 0.000000 
0.441036 0.413677 -1.933146 70 57 28 0.939995 0.086177 -0.330125 0.000000 
0.458176 0.413139 -1.901941 110 96 62 0.833929 -0.533891 -0.139724 0.000000 
0.480812 0.416325 -1.856755 105 92 65 0.813721 -0.331516 -0.477446 0.000000 
0.487909 0.399774 -1.825575 117 104 78 0.876878 0.247325 -0.412208 0.000000 
0.493824 0.426585 -1.830312 119 106 81 -0.831525 0.516485 0.204473 0.000000 
0.443907 0.413311 -1.917318 89 72 42 -0.850448 0.281432 0.444448 0.000000 
0.482718 0.426376 -1.860547 111 102 87 0.788461 -0.509047 -0.345253 0.000000 
0.427124 0.394621 -1.964311 121 106 70 -0.618894 -0.684909 0.384539 0.000000 
0.481292 0.401518 -1.859179 119 109 95 -0.785874 0.317219 0.530824 0.000000 
0.445370 0.393129 -1.956723 88 77 45 0.162398 -0.982810 -0.087815 0.000000 
0.444034 0.397675 -1.913342 108 94 56 -0.560575 0.370993 0.740351 0.000000 
0.468038 0.402396 -1.866639 117 103 62 -0.700075 0.086230 0.708844 0.000000 
0.447917 0.397890 -1.969887 84 70 41 -0.543819 0.804108 0.240148 0.000000 
0.493533 0.412377 -1.807759 127 110 82 -0.903901 0.274845 0.327756 0.000000 
0.401008 0.391319 -2.008862 103 96 75 -0.889306 -0.047520 0.454836 0.000000 
0.435983 0.398110 -1.938057 123 107 68 0.810194 0.186269 -0.555778 0.000000 
0.496557 0.410596 -1.798762 129 116 93 -0.844189 0.344854 0.410391 0.000000 
0.484126 0.408780 -1.840755 108 94 62 0.931557 -0.350846 -0.095441 0.000000 
0.445417 0.413683 -1.924879 83 63 23 0.848374 -0.187031 -0.495259 0.000000 
0.477669 0.398020 -1.846215 108 98 82 0.873858 -0.258082 -0.412026 0.000000 
0.501084 0.427425 -1.803596 106 95 67 0.950171 -0.252748 -0.182465 0.000000 
0.427006 0.400957 -1.953557 107 97 70 0.895549 -0.302490 -0.326331 0.000000 
0.457643 0.412066 -1.903336 111 96 59 0.834264 -0.513277 -0.201374 0.000000 
0.476317 0.382143 -1.998176 123 110 81 -0.507761 -0.789672 0.344380 0.000000 
0.440036 0.393974 -1.916125 129 112 75 -0.901856 0.134079 0.410704 0.000000 
0.500959 0.418828 -1.799389 124 109 82 0.930527 -0.312041 -0.191703 0.000000 
0.471461 0.397595 -1.860994 100 91 67 0.775871 0.329303 -0.538130 0.000000 
0.514073 0.427977 -1.755590 128 124 111 -0.745297 -0.195968 0.637283 0.000000 
0.486383 0.423679 -1.847960 105 95 69 0.903188 -0.304992 -0.302045 0.000000 
0.506029 0.414232 -1.783532 134 130 120 0.979086 0.086569 -0.184112 0.000000 
0.511992 0.434101 -1.774993 117 109 89 -0.770914 0.631540 0.082754 0.000000 
0.500543 0.419801 -1.792549 107 97 71 0.968700 -0.189109 -0.160807 0.000000 
0.500029 0.419054 -1.787102 110 100 81 -0.986045 0.047731 0.159490 0.000000 
0.491966 0.418768 -1.827329 117 100 67 0.875649 -0.408435 -0.257721 0.000000 
0.520007 0.433069 -1.751730 113 109 97 0.813601 -0.160323 -0.558883 0.000000 
0.452836 0.394661 -1.920389 98 84 49 0.422159 0.899016 -0.116409 0.000000 
0.460077 0.391627 -1.898505 94 82 56 -0.744452 -0.654939 0.129794 0.000000 
0.500428 0.427261 -1.809501 117 103 73 -0.809835 0.559495 0.176445 0.000000 
0.457487 0.405919 -1.885412 111 95 54 -0.836233 0.023343 0.547877 0.000000 
0.414285 0.392757 -1.979486 101 91 62 0.956952 -0.080923 -0.278736 0.000000 
0.452701 0.396074 -1.955476 87 74 42 0.173342 -0.976450 -0.128447 0.000000 
0.454320 0.395547 -1.902205 121 105 64 0.561479 0.726136 -0.396822 0.000000 
0.480290 0.397866 -1.844224 123 109 82 -0.914756 0.074536 0.397072 0.000000 
0.417740 0.397132 -1.974335 101 93 66 0.747127 -0.165859 -0.643655 0.000000 
0.456987 0.396237 -1.894109 124 108 67 -0.862556 -0.398221 0.312119 0.000000 
0.401360 0.389502 -2.009959 95 91 74 -0.785947 -0.512714 0.345560 0.000000 
0.474358 0.396537 -1.857150 134 119 91 0.867168 -0.313526 -0.386937 0.000000 
0.414906 0.389367 -2.018740 83 76 52 0.452018 0.863489 -0.223756 0.000000 
0.462198 0.402199 -1.872454 121 103 61 -0.941765 -0.322777 -0.094309 0.000000 
0.470499 0.410402 -1.869412 116 96 58 0.888934 -0.316298 -0.331289 0.000000 
0.466798 0.417671 -1.895536 116 101 70 -0.552271 0.723722 0.413791 0.000000 
0.399661 0.391234 -2.015920 93 89 71 0.309234 0.882447 -0.354487 0.000000 
0.482237 0.404870 -1.833868 135 118 83 -0.975021 0.134269 0.176934 0.000000 
0.487179 0.417789 -1.839892 119 101 70 -0.926630 0.288949 0.240554 0.000000 
0.471794 0.415397 -1.872990 115 99 64 0.877444 -0.394170 -0.273352 0.000000 
0.459928 0.412662 -1.883680 116 98 68 -0.680589 0.664423 0.308771 0.000000 
0.501171 0.421555 -1.799616 129 112 83 0.966440 -0.220055 -0.132548 0.000000 
0.518513 0.431740 -1.754574 133 125 106 0.744719 -0.175858 -0.643792 0.000000 
0.502600 0.411949 -1.787863 137 124 107 0.948117 0.172262 -0.267209 0.000000 
0.462407 0.401786 -1.866896 111 97 60 0.797029 0.052380 -0.601665 0.000000 
0.476603 0.414603 -1.861681 114 99 65 0.685165 -0.354847 -0.636108 0.000000 
0.507605 0.429065 -1.785222 121 109 86 -0.713746 0.670395 0.202822 0.000000 
0.476823 0.412751 -1.860495 117 100 66 -0.666577 0.358674 0.653474 0.000000 
0.512975 0.433384 -1.775239 127 115 95 0.770914 -0.631540 -0.082754 0.000000 
0.428299 0.390627 -1.995767 79 70 43 -0.214335 -0.885425 0.412410 0.000000 
0.442360 0.404782 -1.934357 126 108 66 -0.930040 0.326696 0.168214 0.000000 
0.508108 0.429305 -1.781707 122 109 87 -0.698872 0.689615 0.189760 0.000000 
0.501110 0.415773 -1.785424 127 114 92 0.986561 0.014793 -0.162720 0.000000 
0.495311 0.407690 -1.801379 136 123 104 0.817415 -0.434999 -0.377636 0.000000 
0.470601 0.419041 -1.898083 118 100 73 0.684643 -0.598441 -0.416091 0.000000 
0.450323 0.398414 -1.911735 123 105 63 0.865568 0.317120 -0.387591 0.000000 
0.491837 0.418064 -1.824519 123 104 71 0.889058 -0.397931 -0.226333 0.000000 
0.496040 0.421661 -1.809862 105 94 67 0.829960 -0.445690 -0.335449 0.000000 
0.401803 0.390361 -2.006593 97 93 75 -0.852026 -0.277868 0.443668 0.000000 
0.463888 0.413266 -1.898822 125 105 69 -0.537791 0.783547 0.311184 0.000000 
0.425336 0.398309 -1.963680 100 89 59 0.931205 0.159121 -0.327928 0.000000 
0.484700 0.418384 -1.845827 121 100 69 0.957350 -0.201618 -0.206958 0.000000 
0.427471 0.388617 -1.971480 129 115 84 0.335188 0.857279 -0.390796 0.000000 
0.474700 0.418329 -1.865827 123 103 73 0.739605 -0.512288 -0.436515 0.000000 
0.409302 0.395330 -2.000644 103 95 72 0.917162 0.225343 -0.328686 0.000000 
0.471496 0.419121 -1.871713 106 95 68 0.792127 -0.586929 -0.167478 0.000000 
0.459963 0.410570 -1.892579 121 105 65 -0.707202 0.676116 0.206720 0.000000 
0.483702 0.409859 -1.849132 120 101 63 0.925698 -0.246758 -0.286695 0.000000 
0.453130 0.394415 -1.929987 106 86 54 0.016621 -0.991709 0.127426 0.000000 
0.484377 0.394479 -1.834987 140 132 114 0.941044 0.194271 -0.276940 0.000000 
0.477992 0.411418 -1.858159 116 100 66 0.688152 -0.372818 -0.622458 0.000000 
0.441927 0.410178 -1.936469 114 94 51 -0.951732 0.044473 0.303690 0.000000 
0.474647 0.421599 -1.875944 108 93 65 0.701070 -0.646274 -0.301380 0.000000 
0.496816 0.415511 -1.804701 124 109 83 -0.798030 0.380550 0.467257 0.000000 
0.454837 0.393296 -1.911881 96 82 48 0.444722 0.893549 -0.061577 0.000000 
0.473117 0.388034 -1.880759 134 119 94 0.408343 0.898355 -0.161905 0.000000 
0.481048 0.398472 -1.837681 118 111 97 -0.949101 -0.109868 0.295188 0.000000 
0.485769 0.420755 -1.853065 116 96 68 -0.929330 0.265320 0.256807 0.000000 
0.506895 0.419753 -1.771247 135 126 104 -0.819387 -0.009575 0.573161 0.000000 
0.456055 0.393101 -1.916795 95 80 49 0.438224 0.898819 -0.009212 0.000000 
0.462261 0.408569 -1.880827 118 100 58 0.756473 -0.345029 -0.555611 0.000000 
0.504979 0.429073 -1.789026 119 106 78 0.719239 -0.656560 -0.227210 0.000000 
0.500659 0.425882 -1.806700 116 102 71 -0.905432 0.340817 0.253053 0.000000 
0.450862 0.405450 -1.916604 125 106 61 0.582761 -0.420053 -0.695661 0.000000 
0.496397 0.413208 -1.800526 125 111 85 -0.800494 0.436487 0.410716 0.000000 
0.456107 0.403784 -1.892233 120 102 57 -0.978894 0.091886 0.182547 0.000000 
0.506728 0.426999 -1.779444 123 110 85 0.663287 -0.707401 -0.244203 0.000000 
0.447646 0.393026 -1.935954 106 92 56 -0.326955 -0.927541 0.181018 0.000000 
0.469114 0.409243 -1.872155 109 94 54 0.809458 -0.408736 -0.421559 0.000000 
0.477559 0.416033 -1.861523 122 105 74 -0.659850 0.452707 0.599712 0.000000 
0.504451 0.425290 -1.777493 133 120 87 0.771110 -0.557179 -0.308125 0.000000 
0.512299 0.431181 -1.761309 133 123 100 -0.956017 0.199226 0.215271 0.000000 
0.429910 0.401136 -1.943224 107 95 73 -0.889349 0.175548 0.422187 0.000000 
0.477100 0.400661 -1.847083 123 106 76 0.802816 -0.413475 -0.429563 0.000000 
0.428804 0.391438 -1.968219 102 89 56 0.474239 0.735318 -0.484153 0.000000 
0.471085 0.397556 -1.860205 107 97 80 0.802483 0.203296 -0.560974 0.000000 
0.512357 0.419924 -1.765306 143 132 112 0.852193 0.264685 -0.451341 0.000000 
0.440497 0.401531 -1.924295 123 108 64 -0.996323 -0.084543 -0.013912 0.000000 
0.459549 0.404774 -1.885820 111 96 61 0.811835 -0.009616 -0.583807 0.000000 
0.428951 0.401677 -1.950806 105 93 60 0.896224 -0.343329 -0.280906 0.000000 
0.452475 0.405579 -1.910992 123 104 59 0.812197 -0.454766 -0.365409 0.000000 
0.460706 0.407336 -1.883603 111 95 54 0.799672 -0.254087 -0.544026 0.000000 
0.469499 0.412426 -1.873793 121 102 67 0.862866 -0.336841 -0.376831 0.000000 
0.473117 0.388034 -1.880759 134 119 94 -0.408343 -0.898355 0.161905 0.000000 
0.462794 0.411047 -1.887797 125 105 68 -0.635466 0.735885 0.233789 0.000000 
0.487239 0.383033 -1.989479 128 115 88 0.357250 0.905518 -0.228931 0.000000 
0.478064 0.405556 -1.853292 125 106 72 -0.809491 0.415165 0.415165 0.000000 
0.503032 0.422934 -1.779855 118 105 75 0.925805 -0.302913 -0.226118 0.000000 
0.466996 0.400517 -1.866210 107 94 60 0.691472 0.120450 -0.712291 0.000000 
0.489707 0.411234 -1.819766 112 96 64 0.893196 -0.302702 -0.332525 0.000000 
0.498559 0.415437 -1.801942 125 110 85 0.807948 -0.439972 -0.391975 0.000000 
0.459595 0.393229 -1.902225 93 81 54 0.716376 0.689788 -0.104871 0.000000 
0.461994 0.397995 -1.868441 128 112 75 0.837535 0.487154 -0.247419 0.000000 
0.460984 0.408697 -1.883626 122 102 62 -0.767725 0.368443 0.524260 0.000000 
0.501662 0.431391 -1.809329 112 104 84 0.782199 -0.605040 -0.148633 0.000000 
0.479060 0.406075 -1.854270 124 104 68 0.764843 -0.393022 -0.510439 0.000000 
0.503362 0.424520 -1.786105 123 109 82 0.863816 -0.469690 -0.182246 0.000000 
0.483353 0.408138 -1.844142 109 95 61 -0.951678 0.304588 0.039179 0.000000 
0.459543 0.404879 -1.871146 123 109 83 0.989858 -0.140445 -0.021348 0.000000 
0.473725 0.408165 -1.861696 122 101 63 0.757603 -0.386133 -0.526249 0.000000 
0.455605 0.404727 -1.891432 122 104 71 0.972230 -0.099105 -0.212009 0.000000 
0.444519 0.393312 -1.948515 90 78 45 0.141066 0.989717 -0.023699 0.000000 
0.463445 0.398431 -1.878821 110 95 69 -0.968193 -0.166307 0.186935 0.000000 
0.450779 0.412085 -1.916932 107 90 47 0.704931 -0.304879 -0.640407 0.000000 
0.469927 0.394022 -1.922815 108 98 78 -0.219475 0.964910 0.144152 0.000000 
0.408972 0.396089 -2.002218 116 106 77 0.919712 0.164788 -0.356336 0.000000 
0.413109 0.387655 -1.974737 100 90 63 0.451495 0.753587 -0.477764 0.000000 
0.489596 0.425585 -1.841540 107 97 73 -0.815966 0.456496 0.354699 0.000000 
0.425662 0.403990 -1.962928 102 93 67 0.913804 -0.360675 -0.186752 0.000000 
0.415243 0.386016 -2.009669 88 80 56 0.276739 0.959108 0.059391 0.000000 
0.493646 0.408237 -1.807124 118 109 91 0.899882 -0.303914 -0.312809 0.000000 
0.470428 0.393752 -1.869435 102 90 74 0.286237 0.876883 -0.386192 0.000000 
0.480229 0.411046 -1.856988 120 102 69 0.721039 -0.389262 -0.573217 0.000000 
0.468471 0.417017 -1.894316 116 100 71 0.543837 -0.749613 -0.377256 0.000000 
0.419945 0.387368 -1.990486 88 78 48 -0.074825 -0.984606 0.157964 0.000000 
0.409790 0.385547 -2.002745 98 90 65 -0.535259 -0.824751 0.182440 0.000000 
0.465089 0.393997 -1.876418 105 92 70 0.821044 0.549846 -0.153480 0.000000 
0.456071 0.405517 -1.893882 110 96 59 0.961891 -0.120723 -0.245341 0.000000 
0.507403 0.428479 -1.783449 122 110 87 0.605925 -0.751474 -0.261038 0.000000 
0.488597 0.422098 -1.838976 105 92 65 0.858215 -0.419128 -0.296307 0.000000 
0.477488 0.401655 -1.848401 121 105 73 -0.790386 0.431561 0.434793 0.000000 
0.498480 0.427886 -1.814072 113 104 73 0.773360 -0.612937 -0.161936 0.000000 
0.500892 0.426981 -1.803089 107 96 67 0.966551 -0.203144 -0.156563 0.000000 
0.414626 0.397217 -1.977247 103 93 64 0.828621 -0.345653 -0.440353 0.000000 
0.442122 0.393789 -1.913645 129 112 74 0.683205 0.127073 -0.719085 0.000000 
0.487122 0.402398 -1.822828 114 108 95 0.914545 0.057578 -0.400365 0.000000 
0.509557 0.431617 -1.789922 122 110 92 0.584339 -0.788782 -0.190711 0.000000 
0.437066 0.400834 -1.926364 109 93 63 0.973487 -0.178494 -0.143048 0.000000 
0.472120 0.399399 -1.860477 105 94 64 0.793994 -0.113008 -0.597330 0.000000 
0.421194 0.397798 -1.972184 120 107 72 0.709343 -0.041224 -0.703657 0.000000 
0.491190 0.421736 -1.831226 118 100 70 0.886085 -0.414293 -0.207883 0.000000 
0.504078 0.425017 -1.777277 119 110 76 -0.784215 0.517999 0.341591 0.000000 
0.481184 0.415464 -1.852628 115 102 81 -0.879718 0.247280 0.406139 0.000000 
0.455239 0.411881 -1.893429 107 91 59 0.787328 -0.557887 -0.262443 0.000000 
0.489482 0.405527 -1.817553 117 102 72 0.954096 -0.075967 -0.289705 0.000000 
0.494750 0.411253 -1.801246 124 112 85 0.858976 -0.331562 -0.390163 0.000000 
0.490879 0.415179 -1.824551 127 107 75 -0.851325 0.460052 0.252188 0.000000 
0.427891 0.389790 -1.977711 92 80 49 0.083985 0.979824 -0.181359 0.000000 
0.423273 0.397673 -1.968884 100 91 62 -0.777416 -0.116539 0.618097 0.000000 
0.448763 0.400206 -1.903965 110 96 60 0.876778 -0.171257 -0.449367 0.000000 
0.461867 0.396444 -1.887927 100 87 55 -0.803542 -0.396158 0.444274 0.000000 
0.475974 0.423165 -1.875780 114 100 76 0.659939 -0.672975 -0.334043 0.000000 
0.450694 0.412173 -1.917845 107 89 47 0.736110 -0.275047 -0.618459 0.000000 
0.484078 0.421478 -1.857100 113 96 70 0.857623 -0.322961 -0.400224 0.000000 
0.512764 0.424581 -1.760457 141 131 106 0.803494 0.326171 -0.498007 0.000000 
0.466465 0.393478 -1.867728 135 118 88 -0.488001 -0.714513 0.501325 0.000000 
0.456436 0.393327 -1.916263 95 81 48 0.415276 0.907656 -0.060871 0.000000 
0.442166 0.405814 -1.935989 129 110 66 0.866512 -0.304120 -0.395814 0.000000 
0.501239 0.426323 -1.789769 123 109 80 0.853569 -0.469840 -0.225100 0.000000 
0.430629 0.401009 -1.941640 105 94 69 0.835354 -0.247683 -0.490751 0.000000 
0.512507 0.431403 -1.755124 124 120 113 -0.871557 0.042415 0.488455 0.000000 
0.504313 0.420795 -1.774473 122 111 86 0.830168 -0.152965 -0.536119 0.000000 
0.483880 0.410404 -1.846222 107 94 61 0.952995 -0.250647 -0.170226 0.000000 
0.438725 0.393756 -1.949307 95 83 50 -0.324419 -0.934930 0.143730 0.000000 
0.443832 0.392753 -1.946720 90 77 44 -0.229594 -0.967848 0.102747 0.000000 
0.474369 0.396464 -1.856600 112 104 90 0.867168 -0.313526 -0.386937 0.000000 
0.481922 0.401956 -1.839566 122 105 71 0.977002 -0.190965 -0.094867 0.000000 
0.463793 0.416660 -1.901966 117 97 64 0.629596 -0.609449 -0.481851 0.000000 
0.485228 0.414575 -1.842289 105 92 64 -0.952444 0.263158 0.153620 0.000000 
0.483163 0.419991 -1.857434 117 100 70 -0.821693 0.356225 0.444886 0.000000 
0.501034 0.424120 -1.800297 120 105 72 0.961586 -0.245263 -0.123280 0.000000 
0.453393 0.403138 -1.904935 121 103 59 -0.794894 0.440174 0.417601 0.000000 
0.443475 0.400592 -1.915031 118 101 67 -0.479602 0.172657 0.860332 0.000000 
0.418614 0.386774 -2.003182 80 72 47 0.154796 0.975341 -0.157313 0.000000 
0.470434 0.397382 -1.914388 126 117 105 0.125343 -0.990095 0.063247 0.000000 
0.471160 0.394213 -1.870409 104 93 77 0.319843 0.887452 -0.331856 0.000000 
0.511854 0.431077 -1.760188 109 103 88 0.932739 -0.223688 -0.282776 0.000000 
0.458808 0.393031 -1.903575 105 89 64 0.621141 0.743796 -0.246884 0.000000 
0.494791 0.408453 -1.799562 129 122 108 -0.858993 0.293502 0.419508 0.000000 
0.458549 0.393561 -1.894205 104 90 56 0.788763 0.552607 -0.269219 0.000000 
0.464116 0.400849 -1.866934 107 94 61 0.770372 0.101249 -0.629504 0.000000 
0.462744 0.404443 -1.878384 123 104 65 0.970984 -0.062923 -0.230717 0.000000 
0.484328 0.414688 -1.852545 121 102 68 0.905233 -0.234690 -0.354222 0.000000 
0.483731 0.415561 -1.850557 110 96 63 -0.949165 0.186031 0.253925 0.000000 
0.441528 0.394600 -1.919909 112 96 60 -0.861688 -0.414773 0.292331 0.000000 
0.483439 0.420855 -1.858703 115 98 71 -0.806219 0.418336 0.418336 0.000000 
0.484254 0.408637 -1.841844 126 107 71 0.933722 -0.349316 -0.078364 0.000000 
0.464744 0.395707 -1.874366 101 90 59 -0.778112 -0.627779 0.020880 0.000000 
0.460502 0.399282 -1.884920 127 109 68 0.847530 0.299037 -0.438485 0.000000 
0.447244 0.411509 -1.922468 106 88 45 0.784452 -0.443386 -0.433641 0.000000 
0.478298 0.416647 -1.860291 104 92 65 0.666960 -0.402162 -0.627240 0.000000 
0.462370 0.400322 -1.881442 124 107 66 -0.938582 -0.160313 0.305553 0.000000 
0.497997 0.413985 -1.800397 125 111 89 -0.781690 0.463164 0.417660 0.000000 
0.500072 0.424847 -1.800900 103 93 66 0.950762 -0.280574 -0.131644 0.000000 
0.506694 0.421605 -1.772962 125 115 95 -0.806977 0.166805 0.566537 0.000000 
0.475898 0.403815 -1.853828 125 106 69 -0.823392 0.349270 0.447255 0.000000 
0.489176 0.403654 -1.818530 108 102 90 0.946851 -0.052674 -0.317330 0.000000 
0.470726 0.394720 -1.889401 134 124 112 0.630438 0.723009 -0.282500 0.000000 
0.493047 0.416236 -1.816240 117 100 68 0.933210 -0.312924 -0.176628 0.000000 
0.465120 0.413586 -1.891975 125 105 71 0.511375 -0.833071 -0.210923 0.000000 
0.423234 0.405723 -1.966856 144 139 127 -0.767876 0.284575 0.573920 0.000000 
0.491679 0.408918 -1.811923 127 111 82 -0.950636 0.179850 0.252872 0.000000 
0.466382 0.401360 -1.935742 91 74 48 0.405364 -0.869938 -0.280870 0.000000 
0.485161 0.424409 -1.849528 90 79 59 0.920124 -0.292309 -0.260630 0.000000 
0.484010 0.409123 -1.829341 98 88 64 -0.908638 0.320438 0.267763 0.000000 
0.458577 0.392734 -1.910211 98 85 53 -0.195070 -0.975352 0.103126 0.000000 
0.462984 0.398188 -1.881603 102 89 57 -0.926037 -0.261117 0.272532 0.000000 
0.492924 0.417144 -1.814171 124 105 75 0.917300 -0.336296 -0.213226 0.000000 
0.482184 0.404411 -1.841283 133 116 82 0.957711 -0.272708 -0.091764 0.000000 
0.504903 0.428869 -1.788128 112 101 78 0.712128 -0.661823 -0.234232 0.000000 
0.437614 0.404780 -1.937982 111 97 61 0.771129 -0.464634 -0.435288 0.000000 
0.479287 0.423999 -1.863756 114 102 79 0.638740 -0.718383 -0.275566 0.000000 
0.454132 0.413939 -1.899375 105 88 57 -0.815526 0.550216 0.179386 0.000000 
0.467915 0.401795 -1.932342 92 74 49 0.448079 -0.848425 -0.281782 0.000000 
0.443040 0.401534 -1.914792 110 97 60 -0.438885 0.138671 0.887778 0.000000 
0.427039 0.393489 -1.965353 96 87 57 0.622683 0.592308 -0.511309 0.000000 
0.491631 0.423698 -1.829788 109 97 69 0.861007 -0.462698 -0.211134 0.000000 
0.435262 0.400305 -1.938636 124 107 67 0.855002 -0.054220 -0.515782 0.000000 
0.500611 0.425405 -1.804147 124 109 78 -0.945228 0.242823 0.218130 0.000000 
0.495317 0.423232 -1.817371 120 103 76 0.836280 -0.489492 -0.247048 0.000000 
0.438279 0.394021 -1.939650 123 107 70 0.447263 0.833322 -0.324854 0.000000 
0.514573 0.434638 -1.763965 133 122 101 0.907279 -0.340412 -0.246909 0.000000 
0.501514 0.427026 -1.798425 105 94 67 0.973011 -0.195612 -0.122415 0.000000 
0.504301 0.423743 -1.776217 123 110 83 0.822370 -0.448421 -0.350181 0.000000 
0.434475 0.399327 -1.938769 113 99 67 0.785701 0.207573 -0.582741 0.000000 
0.470468 0.398346 -1.863266 106 94 64 0.856714 0.274332 -0.436786 0.000000 
0.486247 0.413058 -1.837361 116 99 65 0.932146 -0.350058 -0.092544 0.000000 
0.491264 0.416052 -1.823432 114 98 66 -0.873068 0.438765 0.212690 0.000000 
0.471822 0.417171 -1.868353 111 98 73 0.823106 -0.473719 -0.313189 0.000000 
0.502233 0.411400 -1.802152 135 129 116 0.764753 -0.473263 -0.437236 0.000000 
0.452220 0.394229 -1.927173 98 84 49 -0.232626 -0.967368 0.100423 0.000000 
0.486012 0.395107 -1.835783 127 115 94 0.917300 0.213226 -0.336296 0.000000 
0.482737 0.407784 -1.840391 128 110 76 0.946297 -0.320541 -0.042143 0.000000 
0.485262 0.418591 -1.844877 105 92 63 0.942476 -0.205606 -0.263562 0.000000 
0.465303 0.392453 -1.883054 99 88 59 -0.693833 -0.674867 0.251297 0.000000 
0.501451 0.419521 -1.791973 121 107 78 0.975747 -0.164508 -0.144416 0.000000 
0.459246 0.420187 -1.902182 93 81 51 -0.635568 0.652163 0.413202 0.000000 
0.481529 0.396932 -1.839496 140 129 106 0.927969 0.142445 -0.344358 0.000000 
0.481951 0.402356 -1.836267 127 111 78 -0.983173 0.029088 0.180345 0.000000 
0.461442 0.412600 -1.901812 126 108 69 0.748239 -0.605263 -0.271654 0.000000 
0.491917 0.412237 -1.814341 126 107 76 0.950242 -0.188422 -0.248066 0.000000 
0.455701 0.396009 -1.897174 123 106 67 -0.743040 -0.570694 0.349570 0.000000 
0.457931 0.404462 -1.885607 119 101 57 0.859777 0.107293 -0.499271 0.000000 
0.460249 0.393085 -1.919138 101 83 57 -0.000991 -0.999889 -0.014865 0.000000 
0.482314 0.411083 -1.855201 122 103 70 0.822215 -0.276152 -0.497697 0.000000 
0.440795 0.395222 -1.914816 124 107 66 0.821825 -0.069791 -0.565450 0.000000 
0.413848 0.389731 -1.982958 98 90 63 0.727684 0.649773 -0.219707 0.000000 
0.427745 0.400996 -1.955849 123 108 68 0.964156 -0.224494 -0.141444 0.000000 
0.458632 0.392900 -1.918613 94 79 50 -0.151459 -0.988412 -0.010097 0.000000 
0.459240 0.392563 -1.905827 99 84 59 -0.455404 -0.871016 0.184225 0.000000 
0.455714 0.396442 -1.895312 126 109 70 0.836758 0.453439 -0.306967 0.000000 
0.396042 0.386983 -2.026741 95 90 72 -0.154029 -0.941893 0.298516 0.000000 
0.468500 0.414288 -1.877394 118 101 67 0.826024 -0.437493 -0.355364 0.000000 
0.503291 0.410956 -1.787488 138 126 111 0.948117 0.172262 -0.267209 0.000000 
0.409605 0.394376 -1.998111 105 97 71 0.901917 0.179808 -0.392701 0.000000 
0.409454 0.387552 -2.000561 107 97 69 -0.701011 -0.685536 0.196531 0.000000 
0.469802 0.395289 -1.897429 114 104 89 0.346268 0.900296 -0.263753 0.000000 
0.488687 0.412198 -1.825021 125 107 76 0.829742 -0.462710 -0.312134 0.000000 
0.466569 0.409400 -1.876114 114 95 59 -0.793337 0.454028 0.405555 0.000000 
0.505045 0.416930 -1.773267 137 128 111 0.848226 0.054499 -0.526823 0.000000 
0.425693 0.405069 -1.965483 100 91 66 0.797363 -0.326266 -0.507702 0.000000 
0.452605 0.398293 -1.901925 108 93 54 0.766490 0.192006 -0.612884 0.000000 
0.451383 0.401973 -1.902494 118 101 66 -0.763871 0.126567 0.632837 0.000000 
0.483696 0.412934 -1.850029 108 94 62 -0.948346 0.152004 0.278451 0.000000 
0.448292 0.393497 -1.929393 103 89 52 0.189308 0.978295 -0.084273 0.000000 
0.461945 0.390561 -1.900163 102 90 62 -0.521683 -0.843168 0.130055 0.000000 
0.509214 0.426466 -1.771306 123 112 88 0.835671 -0.340226 -0.431162 0.000000 
0.451416 0.410550 -1.916588 116 99 55 -0.693095 0.149491 0.705175 0.000000 
0.469476 0.415713 -1.877194 117 99 66 0.827468 -0.442892 -0.345172 0.000000 
0.491852 0.418447 -1.809447 127 108 79 0.882881 -0.336551 -0.327496 0.000000 
0.490225 0.420383 -1.833682 121 101 72 0.871866 -0.444102 -0.206455 0.000000 
0.463695 0.401400 -1.875448 111 96 59 0.985045 0.142431 0.096949 0.000000 
0.469476 0.415713 -1.877194 117 99 66 0.827468 -0.442892 -0.345172 0.000000 
0.448147 0.395644 -1.910835 128 109 71 -0.642249 -0.645568 0.413230 0.000000 
0.447191 0.395822 -1.910503 123 105 64 0.811213 -0.049378 -0.582662 0.000000 
0.413328 0.388392 -2.016289 92 85 60 0.377262 0.925532 -0.032635 0.000000 
0.415018 0.395364 -1.977259 101 91 63 0.679427 -0.061766 -0.731138 0.000000 
0.482545 0.416984 -1.855766 107 93 63 0.852256 -0.317083 -0.416074 0.000000 
0.463023 0.397378 -1.884338 120 105 67 0.874443 0.317841 -0.366506 0.000000 
0.408462 0.388941 -2.008292 94 88 67 0.569446 0.767237 -0.295091 0.000000 
0.481184 0.415464 -1.852628 115 102 81 0.879718 -0.247280 -0.406139 0.000000 
0.490953 0.418503 -1.816793 115 100 82 -0.908676 0.394649 0.136231 0.000000 
0.492010 0.416824 -1.821086 131 112 80 -0.903474 0.387615 0.183000 0.000000 
0.486151 0.418738 -1.845883 118 100 70 0.951005 -0.198859 -0.236737 0.000000 
0.430008 0.397770 -1.948774 104 93 61 0.857181 0.406196 -0.316616 0.000000 
0.493330 0.419874 -1.816610 130 110 78 0.891206 -0.423215 -0.163219 0.000000 
0.461166 0.401062 -1.874055 122 110 70 0.966514 0.212917 0.143235 0.000000 
0.467932 0.393571 -1.871126 100 89 61 0.621578 0.754885 -0.209260 0.000000 
0.470726 0.394720 -1.889401 134 124 112 0.630438 0.723009 -0.282500 0.000000 
0.488553 0.409941 -1.817624 95 85 66 0.904769 -0.275109 -0.325128 0.000000 
0.446236 0.390962 -1.945624 97 84 49 -0.298762 -0.948932 0.101342 0.000000 
0.469568 0.415245 -1.881117 121 103 72 0.807660 -0.533772 -0.250546 0.000000 
0.468389 0.409764 -1.872937 118 95 57 0.808362 -0.424190 -0.408183 0.000000 
0.470763 0.392888 -1.876686 113 101 84 0.630757 0.737718 -0.240663 0.000000 
0.437503 0.403766 -1.935916 110 97 61 0.787986 -0.444961 -0.425545 0.000000 
0.451299 0.415633 -1.917543 81 65 30 -0.745998 0.267672 0.609786 0.000000 
0.455154 0.399472 -1.899124 120 103 60 0.875532 0.196367 -0.441457 0.000000 
0.507160 0.419850 -1.771202 128 125 114 0.837151 0.017812 -0.546683 0.000000 
0.482727 0.405294 -1.842405 117 100 63 -0.936227 0.341291 0.083663 0.000000 
0.433239 0.396192 -1.950829 104 91 60 -0.567438 -0.793176 0.221100 0.000000 
0.450598 0.406007 -1.904335 111 96 59 0.800580 -0.515225 -0.305964 0.000000 
0.416323 0.389514 -1.987404 96 87 59 0.963029 -0.013392 -0.269064 0.000000 
0.443616 0.412009 -1.930140 84 70 34 -0.920873 -0.046242 0.387110 0.000000 
0.503486 0.411291 -1.787470 137 125 105 -0.948117 -0.172262 0.267209 0.000000 
0.400869 0.386221 -2.025960 95 90 71 0.245113 0.902661 -0.353726 0.000000 
0.447970 0.414566 -1.921105 73 60 28 0.822393 -0.235189 -0.518031 0.000000 
0.463317 0.387645 -1.897793 126 111 84 -0.548593 -0.820648 0.159944 0.000000 
0.409658 0.398865 -1.995895 106 98 76 -0.880759 0.139370 0.452592 0.000000 
0.442155 0.408126 -1.915781 101 83 52 0.543278 -0.417779 -0.728224 0.000000 
0.493704 0.425854 -1.825457 99 89 66 0.889288 -0.379847 -0.254721 0.000000 
0.467092 0.416200 -1.874421 113 102 76 0.872629 -0.393062 -0.289864 0.000000 
0.513578 0.419188 -1.765372 138 135 124 0.852193 0.264685 -0.451341 0.000000 
0.438028 0.413629 -1.936337 83 70 46 0.951394 -0.073782 -0.299009 0.000000 
0.485757 0.413569 -1.843441 115 99 64 -0.948705 0.235475 0.210975 0.000000 
0.461309 0.403689 -1.882824 111 95 55 0.820215 0.179093 -0.543298 0.000000 
0.465107 0.395047 -1.878089 100 88 63 -0.875623 -0.451699 0.171032 0.000000 
0.501081 0.408856 -1.791939 132 124 112 0.940382 -0.066703 -0.333515 0.000000 
0.442851 0.390164 -1.916695 135 117 84 0.454624 0.835820 -0.307769 0.000000 
0.425313 0.388318 -2.002566 71 63 38 -0.016146 -0.995675 0.091494 0.000000 
0.492623 0.412033 -1.808863 128 111 83 -0.933839 0.223279 0.279449 0.000000 
0.451224 0.405405 -1.903735 111 96 58 0.787511 -0.500851 -0.359131 0.000000 
0.430518 0.398479 -1.945309 105 94 61 0.888606 0.070262 -0.453258 0.000000 
0.458503 0.414702 -1.902503 107 95 62 0.817009 -0.507702 -0.273378 0.000000 
0.462294 0.397313 -1.932819 95 76 48 -0.456786 0.864149 0.211170 0.000000 
0.475889 0.422171 -1.878356 112 96 71 0.721878 -0.646057 -0.247997 0.000000 
0.462600 0.410683 -1.885303 122 105 65 0.669170 -0.652809 -0.355037 0.000000 
0.432191 0.394804 -1.961891 101 89 55 0.385629 0.864976 -0.321101 0.000000 
0.460091 0.393186 -1.889996 118 105 66 -0.811663 -0.414637 0.411435 0.000000 
0.472763 0.398888 -1.858124 101 91 67 -0.776260 0.046831 0.628671 0.000000 
0.462258 0.418281 -1.906594 106 89 57 0.687092 -0.536634 -0.489825 0.000000 
0.466500 0.392126 -1.875757 105 92 72 0.712089 0.675017 -0.193083 0.000000 
0.512387 0.432627 -1.774533 119 109 91 -0.770914 0.631540 0.082754 0.000000 
0.504098 0.423592 -1.775691 120 108 80 0.824446 -0.335769 -0.455574 0.000000 
0.501520 0.413054 -1.787599 122 115 100 0.956665 0.141191 -0.254671 0.000000 
0.462308 0.399895 -1.874561 130 112 72 0.961275 0.247778 0.120646 0.000000 
0.455570 0.415909 -1.913311 95 79 42 0.785075 -0.252289 -0.565692 0.000000 
0.492616 0.420900 -1.821214 108 95 66 0.889564 -0.408877 -0.203706 0.000000 
0.445450 0.406852 -1.923911 124 105 59 0.765463 -0.524935 -0.372168 0.000000 
0.511651 0.419988 -1.767485 138 127 107 -0.880571 -0.121310 0.458125 0.000000 
0.439989 0.409189 -1.945075 94 79 42 -0.944766 0.264644 0.193341 0.000000 
0.415020 0.398929 -1.987343 106 96 69 -0.948277 0.241504 0.206028 0.000000 
0.463647 0.404826 -1.880448 111 95 55 -0.918053 0.102921 0.382865 0.000000 
0.507986 0.431776 -1.792747 121 108 89 0.587924 -0.788456 -0.180783 0.000000 
0.427891 0.389790 -1.977711 92 80 49 -0.083985 -0.979824 0.181359 0.000000 
0.392944 0.389313 -2.024128 94 90 74 -0.309234 -0.882447 0.354487 0.000000 
0.442574 0.410692 -1.937131 101 86 47 0.946587 -0.074217 -0.313793 0.000000 
0.456731 0.401292 -1.893143 121 103 72 -0.935166 -0.169905 0.310801 0.000000 
0.438806 0.393373 -1.953161 93 82 49 0.289365 0.951894 -0.100820 0.000000 
0.453726 0.398699 -1.960188 85 72 42 -0.342390 0.922902 0.176126 0.000000 
0.490286 0.404739 -1.816642 127 111 83 -0.950488 0.060451 0.304825 0.000000 
0.524007 0.432119 -1.744367 123 119 107 0.767379 0.055731 -0.638768 0.000000 
0.506573 0.431618 -1.791261 118 106 82 0.587924 -0.788456 -0.180783 0.000000 
0.463904 0.407725 -1.878214 117 96 57 0.847624 -0.394933 -0.354347 0.000000 
0.458160 0.407926 -1.884594 119 101 58 -0.851754 0.183478 0.490766 0.000000 
0.463117 0.399208 -1.876602 122 106 81 -0.983805 -0.154958 0.090092 0.000000 
0.472687 0.394394 -1.870026 101 90 75 -0.238829 -0.901102 0.361906 0.000000 
0.452797 0.400145 -1.900443 108 93 55 -0.785254 -0.138574 0.603468 0.000000 
0.400814 0.390527 -2.014494 92 89 72 0.309234 0.882447 -0.354487 0.000000 
0.458823 0.402109 -1.888972 112 96 57 -0.855022 -0.313869 0.412823 0.000000 
0.523832 0.433061 -1.753544 109 100 86 0.813601 -0.160323 -0.558883 0.000000 
0.486364 0.411480 -1.829177 120 102 67 0.835959 -0.509436 -0.204077 0.000000 
0.457337 0.399632 -1.890488 128 109 67 0.859078 0.277171 -0.430304 0.000000 
0.512774 0.424553 -1.758465 141 133 103 0.832184 0.254750 -0.492517 0.000000 
0.473370 0.414021 -1.862312 116 102 81 -0.768632 0.343226 0.539815 0.000000 
0.481634 0.400544 -1.836061 101 92 78 0.959806 0.023410 -0.279687 0.000000 
0.459691 0.404259 -1.868430 124 107 79 -0.973787 -0.124715 0.190222 0.000000 
0.495560 0.427693 -1.836413 122 107 83 -0.809733 0.525781 0.260550 0.000000 
0.401499 0.393212 -2.008117 99 94 76 -0.898101 -0.075644 0.433234 0.000000 
0.427668 0.386714 -1.953294 111 101 73 0.414854 0.881751 -0.224527 0.000000 
0.457902 0.406363 -1.884996 121 102 70 0.814180 -0.034913 -0.579562 0.000000 
0.442864 0.396028 -1.937611 107 89 56 -0.439879 -0.763656 0.472584 0.000000 
0.436714 0.407526 -1.950007 101 85 47 -0.759786 0.642217 0.101403 0.000000 
0.501527 0.426236 -1.794332 124 111 82 0.898671 -0.410046 -0.155732 0.000000 
0.455808 0.409311 -1.909948 127 108 64 0.879187 -0.361662 -0.310212 0.000000 
0.457897 0.392000 -1.913600 99 86 54 0.322949 0.946229 0.018849 0.000000 
0.475056 0.402900 -1.854595 129 111 74 -0.822849 0.356726 0.442341 0.000000 
0.443115 0.394278 -1.914554 122 105 63 0.598202 0.082163 -0.797122 0.000000 
0.450700 0.389020 -1.930769 123 107 73 0.171645 0.975995 -0.134058 0.000000 
0.422744 0.395103 -1.969193 99 90 62 -0.720138 -0.382214 0.579063 0.000000 
0.460348 0.400739 -1.869452 110 96 59 0.906424 0.385194 -0.173266 0.000000 
0.499591 0.415779 -1.792142 109 101 83 0.958043 -0.078234 -0.275742 0.000000 
0.515538 0.420884 -1.759660 141 131 112 -0.808331 -0.308463 0.501450 0.000000 
0.466955 0.412267 -1.880151 119 102 65 0.793993 -0.538274 -0.282554 0.000000 
0.469978 0.414390 -1.874460 117 101 66 0.866398 -0.335825 -0.369561 0.000000 
0.509813 0.417168 -1.772707 123 117 101 -0.815340 0.012374 0.578850 0.000000 
0.446959 0.407948 -1.922005 123 104 59 0.774628 -0.370333 -0.512645 0.000000 
0.432682 0.395827 -1.947294 102 91 58 0.582197 0.791970 -0.183932 0.000000 
0.428606 0.395880 -1.954739 124 110 74 -0.893440 -0.408222 0.187404 0.000000 
0.402726 0.388546 -2.019891 92 87 67 0.266915 0.919052 -0.289999 0.000000 
0.483774 0.417058 -1.851604 107 93 63 0.938434 -0.232866 -0.255176 0.000000 
0.485022 0.424747 -1.864974 122 107 82 0.628509 -0.724464 -0.283069 0.000000 
0.463481 0.408720 -1.878388 106 93 58 0.871321 -0.399926 -0.284358 0.000000 
0.460649 0.409933 -1.887532 121 103 64 0.703354 -0.638678 -0.312063 0.000000 
0.465415 0.396490 -1.867259 119 107 87 0.626529 0.575866 -0.525204 0.000000 
0.460692 0.410007 -1.893789 123 106 66 0.779690 -0.588241 -0.214608 0.000000 
0.450278 0.389843 -1.922709 125 108 72 -0.092075 -0.995492 0.022748 0.000000 
0.428470 0.395929 -1.959202 98 88 60 -0.490490 -0.819573 0.296175 0.000000 
0.440148 0.396739 -1.923717 127 110 69 -0.873781 -0.485132 -0.033973 0.000000 
0.493913 0.430493 -1.840848 110 101 81 -0.781125 0.552967 0.289951 0.000000 
0.435392 0.390774 -1.979709 78 68 36 0.044548 0.996351 -0.072798 0.000000 
0.441746 0.391794 -1.951859 94 81 47 -0.123898 -0.992280 -0.005482 0.000000 
0.463715 0.400608 -1.875603 105 92 60 -0.980297 -0.197445 -0.005773 0.000000 
0.425313 0.388318 -2.002566 71 63 38 -0.016146 -0.995675 0.091494 0.000000 
0.462833 0.396864 -1.882790 104 91 58 0.890748 0.345820 -0.294920 0.000000 
0.512764 0.424581 -1.760457 141 131 106 0.803494 0.326171 -0.498007 0.000000 
0.491835 0.412802 -1.815373 116 100 69 -0.952686 0.220266 0.209456 0.000000 
0.480385 0.415725 -1.858241 107 95 65 -0.744782 0.342372 0.572784 0.000000 
0.482971 0.405682 -1.836351 125 108 73 0.948351 -0.316117 -0.026448 0.000000 
0.463994 0.405671 -1.873855 116 98 54 -0.879500 0.461773 0.115088 0.000000 
0.451103 0.408548 -1.918043 127 107 61 -0.691223 0.265366 0.672155 0.000000 
0.484100 0.414039 -1.852298 122 102 69 0.908597 -0.224613 -0.352136 0.000000 
0.516891 0.421025 -1.756830 100 96 86 -0.711931 -0.340489 0.614183 0.000000 
0.438933 0.401382 -1.922674 110 97 61 0.957305 -0.141285 -0.252200 0.000000 
0.435611 0.403747 -1.940540 108 95 62 0.681886 -0.551205 -0.480838 0.000000 
0.437074 0.398591 -1.935341 106 92 60 -0.912818 0.223518 0.341766 0.000000 
0.498304 0.417153 -1.803951 122 107 79 -0.836293 0.373261 0.401610 0.000000 
0.462084 0.401020 -1.884035 121 104 63 0.859468 0.273259 -0.432024 0.000000 
0.511607 0.433200 -1.769173 114 107 90 -0.928812 0.330028 0.168495 0.000000 
0.446198 0.409047 -1.915665 102 88 50 0.655331 -0.381313 -0.652029 0.000000 
0.487572 0.409183 -1.820768 123 105 71 0.905798 -0.207247 -0.369566 0.000000 
0.501238 0.421339 -1.801026 126 109 79 0.944212 -0.274655 -0.181737 0.000000 
0.510067 0.429429 -1.775291 120 108 86 0.764556 -0.634419 -0.113870 0.000000 
0.513112 0.437172 -1.753641 141 139 134 -0.788411 0.382113 0.482076 0.000000 
0.423172 0.390382 -1.973278 121 107 73 0.470659 0.654903 -0.591255 0.000000 
0.431603 0.404040 -1.948789 105 92 60 -0.766233 0.557406 0.319665 0.000000 
0.435234 0.406251 -1.950490 110 94 56 0.740930 -0.624520 -0.246977 0.000000 
0.431334 0.401597 -1.945471 108 95 61 0.835424 -0.434170 -0.336991 0.000000 
0.419926 0.394421 -1.972746 104 93 62 0.473857 0.507110 -0.719930 0.000000 
0.502672 0.424489 -1.789405 123 110 83 0.887260 -0.375552 -0.267824 0.000000 
0.458697 0.392812 -1.902041 103 90 56 -0.681993 -0.720794 0.123863 0.000000 
0.432209 0.391121 -1.985745 76 65 33 -0.020100 -0.997574 0.066646 0.000000 
0.458320 0.394973 -1.943518 84 71 42 0.342390 -0.922902 -0.176126 0.000000 
0.451103 0.408548 -1.918043 127 107 61 -0.691223 0.265366 0.672155 0.000000 
0.476298 0.418120 -1.864336 120 102 74 0.713903 -0.464287 -0.524195 0.000000 
0.485262 0.418591 -1.844877 105 92 63 0.942476 -0.205606 -0.263562 0.000000 
0.500736 0.425106 -1.802559 126 111 81 -0.954168 0.240220 0.178487 0.000000 
0.471507 0.416597 -1.872283 106 93 60 0.825389 -0.511834 -0.238241 0.000000 
0.435706 0.402694 -1.937533 108 95 62 0.737207 -0.443644 -0.509613 0.000000 
0.499641 0.409776 -1.796339 130 126 112 -0.873198 0.276941 0.401035 0.000000 
0.447234 0.393202 -1.939261 95 80 48 -0.287432 -0.953339 0.092343 0.000000 
0.410063 0.389682 -1.994597 118 105 71 0.823737 0.453767 -0.339930 0.000000 
0.478510 0.413575 -1.859417 122 102 71 -0.711058 0.304739 0.633664 0.000000 
0.463622 0.409661 -1.881835 119 101 62 -0.753319 0.441488 0.487442 0.000000 
0.482525 0.416048 -1.854631 106 92 62 -0.873982 0.308554 0.375432 0.000000 
0.512086 0.426638 -1.756698 130 126 117 0.785477 0.154692 -0.599246 0.000000 
0.452390 0.392864 -1.931265 95 81 48 0.005451 -0.993158 0.116650 0.000000 
0.448929 0.396548 -1.908367 123 105 64 -0.678408 -0.612060 0.406381 0.000000 
0.470684 0.395894 -1.863024 105 94 78 -0.612056 -0.612056 0.500773 0.000000 
0.463818 0.416426 -1.903025 117 102 70 0.654779 -0.563884 -0.503288 0.000000 
0.476582 0.421328 -1.866199 107 95 68 0.612795 -0.694939 -0.376220 0.000000 
0.466735 0.392230 -1.912657 103 95 80 0.109887 -0.993423 0.032189 0.000000 
0.430663 0.390990 -1.982023 81 70 38 0.026140 0.998550 -0.047052 0.000000 
0.437469 0.392525 -1.923528 116 105 75 0.814841 0.575098 0.072779 0.000000 
0.438276 0.400460 -1.935332 126 109 69 -0.895697 0.122718 0.427396 0.000000 
0.490012 0.421998 -1.834400 118 99 71 0.873478 -0.431513 -0.225462 0.000000 
0.437489 0.400754 -1.930836 112 97 66 -0.860135 0.473891 0.188665 0.000000 
0.513789 0.433637 -1.760353 122 113 98 -0.947372 0.183494 0.262328 0.000000 
0.422260 0.400076 -1.970807 104 94 64 0.814097 0.037703 -0.579503 0.000000 
0.511204 0.424275 -1.763411 136 126 99 0.915900 0.232220 -0.327416 0.000000 
0.443068 0.394083 -1.948088 100 84 52 0.285581 0.946072 -0.152942 0.000000 
0.501193 0.415357 -1.786362 131 119 100 0.983488 0.045826 -0.175077 0.000000 
0.476984 0.420295 -1.892036 123 107 84 -0.927198 0.222244 0.301516 0.000000 
0.502374 0.425681 -1.792158 124 110 82 0.875554 -0.437036 -0.205925 0.000000 
0.465427 0.408371 -1.877657 114 98 58 -0.788657 0.479000 0.385458 0.000000 
0.440003 0.399854 -1.917838 112 97 57 -0.868935 0.162650 0.467437 0.000000 
0.471121 0.395980 -1.863797 108 98 82 -0.678459 -0.561194 0.474083 0.000000 
0.440523 0.392621 -1.961471 87 76 44 0.053465 0.996201 -0.068741 0.000000 
0.472398 0.416933 -1.871253 111 96 62 -0.818157 0.521208 0.242818 0.000000 
0.441663 0.404220 -1.931234 123 105 63 0.869701 -0.473198 -0.140368 0.000000 
0.481185 0.400225 -1.839448 119 104 71 -0.936133 0.069979 0.344613 0.000000 
0.512764 0.424581 -1.760457 141 131 106 0.803494 0.326171 -0.498007 0.000000 
0.456220 0.405805 -1.895277 120 104 60 0.931279 -0.078606 -0.355725 0.000000 
0.446774 0.392142 -1.942499 94 79 47 0.120537 0.990699 -0.063138 0.000000 
0.482287 0.400733 -1.834069 90 83 61 0.953072 0.103566 -0.284479 0.000000 
0.478324 0.420720 -1.861362 92 80 59 -0.780313 0.363500 0.508900 0.000000 
0.471124 0.411837 -1.861345 130 120 103 -0.733164 0.360867 0.576407 0.000000 
0.428065 0.394516 -1.966103 97 87 58 -0.622683 -0.592308 0.511309 0.000000 
0.406833 0.393452 -2.002252 98 93 73 0.779239 0.418088 -0.466893 0.000000 
0.440191 0.393601 -1.925992 130 112 76 -0.743761 -0.661610 -0.095354 0.000000 
0.465070 0.396467 -1.877992 100 88 60 0.885833 0.440763 -0.145007 0.000000 
0.475309 0.411967 -1.859816 104 93 66 0.668839 -0.416572 -0.615730 0.000000 
0.490068 0.406736 -1.817489 121 105 74 -0.949418 0.104028 0.296282 0.000000 
0.457337 0.399632 -1.890488 128 109 67 0.859078 0.277171 -0.430304 0.000000 
0.442319 0.402156 -1.914395 110 97 59 0.562402 -0.150670 -0.813021 0.000000 
0.414984 0.393865 -1.975950 99 90 62 -0.580879 -0.232040 0.780216 0.000000 
0.484297 0.413523 -1.845439 106 92 62 0.960462 -0.199491 -0.194206 0.000000 
0.437014 0.399172 -1.933704 113 97 66 0.891817 -0.407229 -0.197046 0.000000 
0.451403 0.402958 -1.905354 119 102 57 -0.867509 0.360822 0.342397 0.000000 
0.423075 0.391942 -1.972061 100 89 58 -0.571168 -0.631823 0.523992 0.000000 
0.457170 0.401841 -1.892717 109 95 57 0.947681 0.155026 -0.279047 0.000000 
0.512962 0.433628 -1.761100 121 112 96 0.944064 -0.221890 -0.243941 0.000000 
0.441603 0.391500 -1.953304 95 82 48 0.123898 0.992280 0.005482 0.000000 
0.426581 0.398224 -1.954932 113 101 75 0.943051 0.219539 -0.249915 0.000000 
0.492940 0.418463 -1.821506 129 111 78 0.908870 -0.380955 -0.169789 0.000000 
0.453315 0.394148 -1.928277 94 81 48 0.059656 0.996803 -0.053148 0.000000 
0.467193 0.416659 -1.879600 109 99 69 -0.788213 0.544957 0.285905 0.000000 
0.481454 0.409972 -1.837538 122 112 97 0.927177 -0.373211 -0.032510 0.000000 
0.437157 0.398732 -1.937366 110 95 64 -0.782358 0.046687 0.621076 0.000000 
0.523016 0.434763 -1.742796 138 137 133 -0.807605 0.103315 0.580603 0.000000 
0.435087 0.398754 -1.936804 108 95 59 -0.803776 -0.141144 0.577946 0.000000 
0.430164 0.393600 -1.964381 102 90 55 -0.475430 -0.748514 0.462269 0.000000 
0.448328 0.398045 -1.904514 116 99 66 -0.791716 -0.258679 0.553417 0.000000 
0.451807 0.397909 -1.903806 109 94 54 -0.741247 -0.254458 0.621131 0.000000 
0.447386 0.392335 -1.946760 91 76 44 0.104293 0.994546 -0.001075 0.000000 
0.451555 0.395277 -1.921848 100 85 50 0.276415 0.928471 -0.248065 0.000000 
0.471204 0.417982 -1.874314 104 93 62 0.794550 -0.554155 -0.248199 0.000000 
0.482776 0.406341 -1.850319 123 103 67 0.807824 -0.493582 -0.322177 0.000000 
0.412227 0.385622 -1.999849 97 88 62 -0.610597 -0.767475 0.195329 0.000000 
0.490474 0.401765 -1.825520 129 125 114 0.914545 0.057578 -0.400365 0.000000 
0.458265 0.390288 -1.925011 113 100 70 -0.025218 -0.999641 0.009078 0.000000 
0.406980 0.390189 -2.003963 107 98 72 0.773584 0.486951 -0.405521 0.000000 
0.484308 0.417516 -1.851196 106 92 63 -0.942167 0.222744 0.250414 0.000000 
0.439506 0.403392 -1.925721 111 97 59 0.900785 -0.397954 -0.173836 0.000000 
0.415397 0.389472 -1.978281 98 88 59 -0.367027 -0.802972 0.469603 0.000000 
0.511900 0.424036 -1.761128 140 129 107 0.845862 0.302648 -0.439228 0.000000 
0.503953 0.428732 -1.790696 118 104 75 0.797182 -0.547575 -0.254287 0.000000 
0.514065 0.431120 -1.756021 118 110 95 -0.747873 0.185817 0.637305 0.000000 
0.461006 0.407204 -1.877813 124 106 76 -0.894390 0.293169 0.337814 0.000000 
0.489363 0.405552 -1.816958 113 101 68 -0.954096 0.075967 0.289705 0.000000 
0.444257 0.393350 -1.923274 102 88 50 -0.271288 -0.955405 -0.116641 0.000000 
0.393519 0.387549 -2.026847 94 90 71 -0.154029 -0.941893 0.298516 0.000000 
0.479648 0.400433 -1.844704 106 95 67 0.902596 -0.311698 -0.296926 0.000000 
0.496627 0.421918 -1.806464 105 94 71 -0.840013 0.362697 0.403520 0.000000 
0.429340 0.395123 -1.957985 121 107 71 0.501450 0.808331 -0.308463 0.000000 
0.453257 0.395487 -1.926781 107 87 54 0.059534 0.996929 -0.050875 0.000000 
0.418432 0.393553 -1.975620 104 93 62 0.417706 0.433833 -0.798318 0.000000 
0.492902 0.412133 -1.810153 123 106 76 -0.921946 0.270992 0.276727 0.000000 
0.456437 0.395896 -1.960618 90 78 44 -0.375307 0.915074 0.147593 0.000000 
0.483912 0.408249 -1.829754 117 100 63 -0.943095 0.125118 0.308087 0.000000 
0.478990 0.422689 -1.863888 111 99 73 0.681301 -0.591349 -0.431435 0.000000 
0.484616 0.405726 -1.826941 124 107 71 0.910622 0.025039 -0.412481 0.000000 
0.485891 0.424028 -1.848859 113 99 71 0.918983 -0.292863 -0.264009 0.000000 
0.452261 0.395671 -1.902748 120 103 63 0.589070 0.656200 -0.471591 0.000000 
0.434602 0.406880 -1.939393 100 86 58 -0.772356 0.404877 0.489430 0.000000 
0.433532 0.395099 -1.959358 97 86 54 -0.375080 -0.881213 0.287712 0.000000 
0.447718 0.394289 -1.936045 96 81 48 0.356545 0.902366 -0.242098 0.000000 
0.433509 0.391468 -1.994364 67 58 29 0.394323 0.849430 -0.350682 0.000000 
0.502087 0.418513 -1.778385 132 122 93 -0.921985 -0.054390 0.383387 0.000000 
0.501752 0.415629 -1.785926 125 112 89 -0.983488 -0.045826 0.175077 0.000000 
0.453039 0.392622 -1.936636 99 80 50 -0.034650 0.998560 -0.040950 0.000000 
0.501403 0.416672 -1.785172 107 98 75 0.990067 0.014543 -0.139840 0.000000 
0.481832 0.423451 -1.872629 116 101 81 -0.496583 0.819283 0.286671 0.000000 
0.497425 0.410900 -1.795498 129 122 107 -0.872050 0.283606 0.398868 0.000000 
0.445221 0.391241 -1.977411 78 67 37 -0.405794 0.913367 0.033045 0.000000 
0.486684 0.412742 -1.827375 105 92 62 0.836099 -0.473117 -0.277666 0.000000 
0.442483 0.396000 -1.915190 124 108 67 0.782371 -0.085640 -0.616897 0.000000 
0.439785 0.392850 -1.953378 90 79 47 -0.217793 -0.974592 0.052319 0.000000 
0.438379 0.401685 -1.925560 111 97 62 0.953875 -0.247499 -0.169905 0.000000 
0.475334 0.421315 -1.870016 110 95 65 0.615182 -0.755350 -0.225826 0.000000 
0.456330 0.404912 -1.894152 113 97 57 0.959667 -0.091213 -0.265932 0.000000 
0.441927 0.410178 -1.936469 114 94 51 -0.951732 0.044473 0.303690 0.000000 
0.469574 0.409464 -1.870013 119 96 57 0.848746 -0.362858 -0.384661 0.000000 
0.438276 0.400460 -1.935332 126 109 69 -0.895697 0.122718 0.427396 0.000000 
0.439123 0.394954 -1.942042 97 85 51 -0.354197 -0.884740 0.302952 0.000000 
0.487863 0.427619 -1.853500 115 107 87 -0.926630 0.288949 0.240554 0.000000 
0.456088 0.390822 -1.934946 94 82 52 0.039478 -0.997619 -0.056550 0.000000 
0.476984 0.420295 -1.892036 123 107 84 0.927198 -0.222244 -0.301516 0.000000 
0.509833 0.432065 -1.790726 125 113 93 -0.587924 0.788456 0.180783 0.000000 
0.483381 0.407516 -1.837176 117 100 64 0.945367 -0.324453 -0.031809 0.000000 
0.456322 0.403492 -1.893919 120 103 58 -0.950804 0.112092 0.288802 0.000000 
0.484588 0.426122 -1.859095 114 103 82 0.882109 -0.409073 -0.233543 0.000000 
0.503701 0.415542 -1.777757 133 122 99 0.899738 0.134606 -0.415155 0.000000 
0.438410 0.406520 -1.946096 114 97 57 -0.800976 0.554047 0.226866 0.000000 
0.468350 0.397110 -1.865750 105 93 62 -0.517846 -0.639296 0.568450 0.000000 
0.482454 0.406889 -1.851719 122 103 72 0.788411 -0.482076 -0.382113 0.000000 
0.484938 0.420471 -1.850266 114 97 68 0.939107 -0.221212 -0.262950 0.000000 
0.453444 0.417428 -1.910914 88 74 43 0.755613 -0.104578 -0.646616 0.000000 
0.509585 0.423461 -1.764358 124 116 88 -0.917915 -0.167791 0.359552 0.000000 
0.457909 0.409171 -1.885761 106 93 59 0.836758 -0.306967 -0.453439 0.000000 
0.456670 0.395743 -1.897511 102 89 55 0.743447 0.606538 -0.281778 0.000000 
0.500640 0.418005 -1.799857 127 110 85 -0.948045 0.259794 0.183624 0.000000 
0.410081 0.397740 -1.990961 105 97 72 -0.899143 0.211306 0.383265 0.000000 
0.415318 0.394813 -1.976195 99 91 64 -0.580879 -0.232040 0.780216 0.000000 
0.437226 0.390087 -1.981101 79 68 37 0.100330 -0.993159 0.059747 0.000000 
0.474547 0.419896 -1.870342 113 97 67 -0.741804 0.622107 0.250418 0.000000 
0.427382 0.389930 -1.995412 72 62 34 -0.175407 -0.832060 0.526222 0.000000 
0.467432 0.413397 -1.885893 127 108 77 -0.709693 0.682102 0.176274 0.000000 
0.446845 0.395739 -1.927664 111 92 56 -0.383441 -0.922115 0.051745 0.000000 
0.423167 0.403497 -1.973420 103 92 62 -0.799433 0.435908 0.413389 0.000000 
0.441566 0.397170 -1.916908 125 108 67 0.895137 -0.123028 -0.428478 0.000000 
0.451451 0.388175 -1.939045 125 109 78 0.086123 0.996257 -0.007443 0.000000 
0.495628 0.424184 -1.819242 115 101 71 0.832514 -0.497046 -0.244676 0.000000 
0.465099 0.413874 -1.892065 122 105 71 -0.511375 0.833071 0.210923 0.000000 
0.491669 0.427757 -1.841743 120 112 88 0.807417 -0.490161 -0.328360 0.000000 
0.464004 0.390660 -1.884536 120 110 84 -0.664827 -0.696713 0.269438 0.000000 
0.408720 0.396209 -1.997967 104 96 72 -0.871961 -0.045314 0.487474 0.000000 
0.493106 0.421940 -1.822729 123 105 74 0.896312 -0.385810 -0.218577 0.000000 
