ply
format ascii 1.0
comment Created by Open3D
obj_info Generated by CloudCompare!
element vertex 630
property float x
property float y
property float z
property uchar red
property uchar green
property uchar blue
property float nx
property float ny
property float nz
property float scalar_leaf5
end_header
0.374779 0.540525 -0.764783 89 83 62 -0.986081 0.164156 0.026403 0.000000 
0.380718 0.670344 -1.130307 77 69 45 -0.708140 -0.696263 -0.117281 0.000000 
0.346070 0.744046 -1.412598 95 84 53 0.696392 -0.647919 -0.308610 0.000000 
0.368238 0.715446 -1.303084 45 35 7 0.384159 -0.905004 -0.182727 0.000000 
0.339208 0.775516 -1.478018 103 99 82 0.556584 -0.783632 -0.275927 0.000000 
0.363397 0.641073 -1.112321 71 68 56 -0.051279 0.961801 0.268904 0.000000 
0.326892 0.787210 -1.563474 91 82 54 -0.871313 -0.479009 0.106604 0.000000 
0.359666 0.556992 -0.785295 67 62 42 -0.810086 0.576548 0.106552 0.000000 
0.372476 0.499182 -0.639050 116 115 106 -0.930082 -0.367171 0.011514 0.000000 
0.365869 0.533126 -0.767100 82 77 57 -0.392047 -0.853827 -0.342460 0.000000 
0.343476 0.771274 -1.471269 102 92 66 -0.735417 0.534699 0.416243 0.000000 
0.359257 0.513540 -0.657170 82 75 59 0.539778 -0.821007 -0.185974 0.000000 
0.354370 0.672840 -1.216698 78 72 54 -0.898582 -0.384272 -0.211861 0.000000 
0.343552 0.753398 -1.502123 77 66 43 0.232614 -0.914561 -0.330860 0.000000 
0.371772 0.534865 -0.766280 79 76 59 0.820301 -0.571891 -0.006824 0.000000 
0.364392 0.657245 -1.166953 73 65 45 0.371566 -0.901958 -0.220025 0.000000 
0.341854 0.742084 -1.420601 89 78 50 -0.818283 0.537903 0.202666 0.000000 
0.357779 0.519279 -0.691814 71 65 51 -0.955792 -0.141452 -0.257786 0.000000 
0.351944 0.763134 -1.538028 73 62 37 -0.145615 0.986157 0.079319 0.000000 
0.377555 0.611903 -0.939355 107 102 84 0.982752 0.146625 0.112695 0.000000 
0.350729 0.689041 -1.263961 68 62 39 -0.911918 -0.391220 -0.123909 0.000000 
0.366112 0.572017 -0.865383 36 35 21 -0.771066 -0.621345 -0.139241 0.000000 
0.381226 0.625408 -1.018507 88 82 60 -0.883813 0.424995 0.195586 0.000000 
0.355012 0.734266 -1.366086 94 86 59 -0.658032 0.736693 0.155810 0.000000 
0.383501 0.631808 -1.032122 109 109 101 0.998982 -0.015496 -0.042356 0.000000 
0.343638 0.757262 -1.448099 88 78 47 0.918525 -0.311925 -0.242928 0.000000 
0.358383 0.582664 -0.873702 69 62 44 0.996825 0.079281 -0.007400 0.000000 
0.362546 0.457466 -0.514644 81 75 57 -0.990187 0.123341 0.065705 0.000000 
0.359149 0.624020 -0.994316 59 53 33 -0.936432 0.341366 0.081025 0.000000 
0.356582 0.730308 -1.400579 69 56 23 -0.829217 0.538472 -0.149823 0.000000 
0.367453 0.599496 -0.970128 84 84 73 0.137544 0.938296 0.317305 0.000000 
0.366190 0.636453 -1.002381 78 72 50 0.176628 -0.933210 -0.312924 0.000000 
0.361967 0.725047 -1.306302 92 81 51 0.343956 -0.894881 -0.284397 0.000000 
0.382476 0.662010 -1.119906 58 52 32 0.553399 -0.583862 -0.594016 0.000000 
0.371896 0.579040 -0.833891 101 93 67 0.297876 0.944848 0.136134 0.000000 
0.358822 0.514879 -0.680496 46 44 31 0.933270 0.330276 0.141155 0.000000 
0.365444 0.635208 -1.082391 49 46 30 0.628214 -0.774845 -0.070440 0.000000 
0.358975 0.629630 -1.040975 52 48 32 0.878013 0.467991 0.100385 0.000000 
0.369144 0.482035 -0.600559 87 82 62 0.874360 -0.474733 0.100615 0.000000 
0.374214 0.524044 -0.723156 92 87 66 0.908061 -0.411017 -0.080565 0.000000 
0.332961 0.779308 -1.545586 77 68 39 -0.819640 -0.557708 0.130966 0.000000 
0.367652 0.687138 -1.219333 45 34 7 0.865291 -0.465926 -0.184891 0.000000 
0.361548 0.540559 -0.733549 81 74 48 0.573736 -0.813636 -0.093937 0.000000 
0.350014 0.734165 -1.442381 73 64 41 0.142527 -0.961078 -0.236674 0.000000 
0.368560 0.657434 -1.139863 40 32 9 -0.950134 0.309964 0.034159 0.000000 
0.362048 0.500756 -0.673258 78 80 71 0.615180 0.733422 0.289214 0.000000 
0.358379 0.635815 -1.060806 70 62 42 0.934833 0.336865 0.112288 0.000000 
0.360325 0.654822 -1.153490 59 52 36 0.701062 0.691898 0.172593 0.000000 
0.369647 0.496029 -0.647423 78 75 60 0.778511 -0.556533 -0.290158 0.000000 
0.369626 0.644345 -1.143628 117 106 93 -0.521964 -0.820669 -0.232497 0.000000 
0.352254 0.707545 -1.361661 82 77 57 0.105179 0.943952 0.312876 0.000000 
0.376333 0.663738 -1.105555 90 80 56 0.267171 0.917045 0.296054 0.000000 
0.338678 0.780132 -1.500779 106 94 65 -0.599348 0.746388 0.289285 0.000000 
0.372491 0.512528 -0.680440 82 77 55 0.985617 -0.165621 0.033587 0.000000 
0.364360 0.657004 -1.069262 83 75 54 -0.548577 0.790643 0.271931 0.000000 
0.375681 0.538739 -0.740685 99 93 71 0.994924 0.072257 0.070034 0.000000 
0.337038 0.750821 -1.449934 89 80 54 0.908513 -0.374600 -0.185147 0.000000 
0.359564 0.542588 -0.748469 69 62 43 -0.969361 0.241421 0.045343 0.000000 
0.366448 0.505819 -0.684283 79 73 54 -0.386331 0.901439 0.195336 0.000000 
0.364240 0.684252 -1.227515 51 39 9 0.938157 -0.323549 -0.123192 0.000000 
0.367965 0.507647 -0.688008 87 82 63 -0.448519 0.868727 0.210104 0.000000 
0.342564 0.735361 -1.405942 92 81 52 -0.958140 0.253664 0.132746 0.000000 
0.382665 0.637293 -1.050364 94 85 57 0.909864 -0.401776 -0.103551 0.000000 
0.362753 0.715364 -1.366920 82 74 49 0.734668 -0.658615 -0.162753 0.000000 
0.343166 0.725590 -1.392514 82 74 49 0.996364 0.066424 0.053357 0.000000 
0.360085 0.578502 -0.849045 75 66 40 0.946613 -0.305829 -0.101943 0.000000 
0.364329 0.657122 -1.168075 68 63 46 0.416731 -0.885000 -0.207629 0.000000 
0.366643 0.638496 -1.095546 77 65 45 0.591564 -0.804357 -0.055326 0.000000 
0.366185 0.709236 -1.348222 71 62 46 0.680589 -0.664423 -0.308771 0.000000 
0.360383 0.490391 -0.637582 84 77 51 0.471589 -0.793492 -0.384675 0.000000 
0.365383 0.524570 -0.686953 94 90 68 -0.032009 -0.941056 -0.336732 0.000000 
0.365800 0.578745 -0.889596 45 42 26 0.552967 0.781125 0.289951 0.000000 
0.336173 0.756908 -1.509301 61 55 35 -0.949654 -0.308862 0.052545 0.000000 
0.354010 0.680895 -1.215213 59 55 36 0.988549 -0.150796 0.005585 0.000000 
0.366490 0.496354 -0.657538 77 76 64 0.578231 -0.802352 -0.147920 0.000000 
0.374899 0.537055 -0.739130 91 84 59 0.994150 0.059136 0.090377 0.000000 
0.375624 0.620862 -0.958552 118 111 94 0.718724 0.656090 0.230179 0.000000 
0.354077 0.681165 -1.249821 59 55 38 -0.795959 -0.601613 -0.067163 0.000000 
0.377915 0.612398 -0.960720 71 65 44 0.955385 0.155466 0.251137 0.000000 
0.378553 0.658464 -1.090205 87 76 52 0.483621 0.859934 0.163167 0.000000 
0.368772 0.481230 -0.606642 75 71 48 -0.722200 0.632921 0.278995 0.000000 
0.376713 0.561323 -0.806605 101 94 71 -0.985965 -0.115645 -0.120414 0.000000 
0.376342 0.579252 -0.889033 89 83 60 0.908886 -0.413375 -0.055206 0.000000 
0.366277 0.663877 -1.169859 49 39 13 0.970485 -0.173072 -0.167944 0.000000 
0.367038 0.678441 -1.220051 63 52 22 0.984851 -0.173397 -0.001133 0.000000 
0.371278 0.696943 -1.209667 93 81 57 0.191266 -0.942569 -0.273827 0.000000 
0.377834 0.603314 -0.938421 78 72 49 -0.984311 -0.171641 -0.040867 0.000000 
0.366339 0.717747 -1.340868 42 30 3 -0.967155 -0.243978 -0.071317 0.000000 
0.352868 0.728041 -1.334793 90 82 55 -0.643765 0.756239 0.116914 0.000000 
0.371611 0.547086 -0.748812 78 70 47 0.761176 0.628008 0.161920 0.000000 
0.369790 0.646532 -1.100272 33 26 5 0.963321 -0.261813 -0.058877 0.000000 
0.372235 0.620106 -0.954623 102 93 67 -0.183000 -0.903474 -0.387615 0.000000 
0.371447 0.532666 -0.759834 90 85 66 -0.738047 0.627890 0.247065 0.000000 
0.362249 0.504529 -0.676130 57 55 38 0.733044 0.663518 0.149632 0.000000 
0.358620 0.602043 -0.935484 81 73 54 0.982014 -0.171883 -0.078128 0.000000 
0.346998 0.726586 -1.360796 85 76 48 -0.580450 0.597373 0.553374 0.000000 
0.364459 0.467292 -0.590931 75 72 56 0.337977 -0.848837 -0.406507 0.000000 
0.380027 0.592029 -0.890784 118 116 105 -0.978179 -0.109783 -0.176393 0.000000 
0.345184 0.720250 -1.344134 64 60 38 0.967817 -0.195114 -0.158934 0.000000 
0.368311 0.500572 -0.659833 65 62 43 -0.723570 0.661858 0.195935 0.000000 
0.368752 0.668624 -1.165411 38 29 5 -0.782239 0.622140 0.032301 0.000000 
0.372681 0.582799 -0.909079 63 60 47 -0.501801 0.771377 0.391373 0.000000 
0.359629 0.482683 -0.570208 118 111 96 -0.834976 0.543805 -0.084211 0.000000 
0.363385 0.615806 -0.949667 85 77 55 0.665420 -0.715287 -0.213495 0.000000 
0.352451 0.697739 -1.254246 88 79 50 0.998880 -0.009278 -0.046388 0.000000 
0.356348 0.475142 -0.551604 79 75 62 -0.465719 0.812226 0.351276 0.000000 
0.369684 0.706086 -1.278603 49 34 6 -0.461062 0.874128 0.152718 0.000000 
0.367603 0.707132 -1.328505 81 70 48 -0.814826 0.572541 0.090857 0.000000 
0.371083 0.613752 -0.997467 63 60 38 0.211794 -0.922513 -0.322666 0.000000 
0.367040 0.699025 -1.286289 56 44 16 -0.883572 -0.249673 -0.396187 0.000000 
0.370132 0.464268 -0.554522 110 108 94 -0.999312 -0.033754 0.015343 0.000000 
0.373135 0.555853 -0.834496 73 72 56 0.608552 -0.718903 -0.335921 0.000000 
0.331005 0.772075 -1.579014 139 127 104 0.932193 0.301386 0.200457 0.000000 
0.363805 0.693574 -1.246119 41 32 7 0.927096 -0.370042 -0.059684 0.000000 
0.375158 0.562198 -0.836617 79 75 58 0.964431 -0.197062 -0.176182 0.000000 
0.359970 0.605480 -0.949567 67 60 45 0.994733 0.036352 -0.095838 0.000000 
0.363249 0.607752 -0.910788 99 93 76 0.587752 -0.786214 -0.190829 0.000000 
0.361560 0.535738 -0.719454 80 72 46 -0.496583 0.819283 0.286671 0.000000 
0.378762 0.622219 -0.987216 82 74 49 -0.935580 -0.343710 -0.080951 0.000000 
0.363849 0.691440 -1.278781 80 72 45 0.490534 -0.866564 -0.091887 0.000000 
0.333606 0.773429 -1.561881 83 73 45 -0.994389 -0.038714 0.098443 0.000000 
0.360833 0.651436 -1.090152 72 62 40 0.915316 -0.402635 -0.009063 0.000000 
0.357291 0.673570 -1.178700 65 59 37 0.965190 -0.239060 -0.106107 0.000000 
0.369802 0.622531 -1.013850 46 41 19 0.300022 -0.872654 -0.385308 0.000000 
0.365949 0.496484 -0.653677 73 67 41 -0.532132 0.828927 0.172381 0.000000 
0.367971 0.512913 -0.658173 93 87 68 -0.528784 -0.771345 -0.354140 0.000000 
0.364797 0.551552 -0.804329 45 41 26 0.818288 0.569803 0.075688 0.000000 
0.361036 0.749916 -1.486327 70 67 51 -0.174319 0.956758 0.232869 0.000000 
0.362347 0.488629 -0.587583 88 86 65 0.469932 0.860796 0.195432 0.000000 
0.363752 0.650150 -1.040954 83 76 55 -0.172132 0.937775 0.301575 0.000000 
0.372814 0.519165 -0.688593 91 84 61 -0.972099 -0.156708 -0.174545 0.000000 
0.377602 0.576244 -0.863752 95 86 61 -0.999443 0.001011 -0.033348 0.000000 
0.370569 0.515592 -0.668458 93 90 73 0.637041 0.708003 0.304812 0.000000 
0.334167 0.789438 -1.526029 95 89 69 0.660054 -0.660054 -0.358689 0.000000 
0.361903 0.526926 -0.732827 41 38 20 -0.787454 -0.570011 -0.234528 0.000000 
0.365817 0.462761 -0.522618 108 95 72 0.790286 0.596076 0.141923 0.000000 
0.364242 0.692356 -1.288064 70 62 38 -0.549897 0.813484 0.189359 0.000000 
0.368000 0.653442 -1.032805 110 111 100 -0.248638 0.911673 0.327156 0.000000 
0.367997 0.667010 -1.181136 61 53 33 0.965983 -0.159485 -0.203570 0.000000 
0.358374 0.517100 -0.678270 75 69 53 -0.956407 0.291723 -0.013540 0.000000 
0.357136 0.619587 -0.996261 79 73 52 0.985318 0.169010 -0.024144 0.000000 
0.367392 0.670601 -1.108162 114 106 86 -0.036190 0.899400 0.435626 0.000000 
0.362330 0.715988 -1.370061 81 73 48 0.614584 -0.718366 -0.325940 0.000000 
0.360413 0.577724 -0.843614 78 69 44 -0.876661 0.473984 0.082493 0.000000 
0.335591 0.754065 -1.488945 65 59 38 -0.919670 -0.383309 -0.085330 0.000000 
0.378960 0.679000 -1.171913 64 56 28 0.801336 -0.581303 -0.141237 0.000000 
0.356016 0.725066 -1.311915 88 80 54 0.393042 -0.904711 -0.164363 0.000000 
0.348157 0.705879 -1.339155 78 71 48 0.851405 0.509103 0.126188 0.000000 
0.372530 0.521874 -0.723205 77 74 58 0.736999 -0.661948 -0.136592 0.000000 
0.363898 0.478538 -0.611118 125 117 103 0.119154 -0.901368 -0.416339 0.000000 
0.383027 0.654095 -1.081133 95 88 69 0.819424 0.528414 0.222087 0.000000 
0.368233 0.688583 -1.228287 42 30 5 0.689844 -0.723564 0.023885 0.000000 
0.350551 0.699074 -1.307437 70 64 41 -0.927630 -0.371835 -0.035226 0.000000 
0.372057 0.527456 -0.705210 76 72 53 0.898727 0.376791 0.224315 0.000000 
0.361325 0.646373 -1.124912 65 57 40 0.343829 0.921122 0.182526 0.000000 
0.363017 0.719461 -1.375667 80 71 43 -0.726047 0.682222 -0.086191 0.000000 
0.339901 0.761779 -1.471603 99 88 61 0.850169 -0.454955 -0.265008 0.000000 
0.370812 0.507295 -0.666887 81 75 52 0.880688 -0.469976 -0.059264 0.000000 
0.380197 0.679222 -1.174520 59 51 30 0.845427 -0.530326 -0.063302 0.000000 
0.362367 0.654849 -1.107411 72 63 41 -0.974073 0.226229 -0.001172 0.000000 
0.351615 0.726743 -1.424532 101 86 58 0.643551 -0.765342 -0.009688 0.000000 
0.373579 0.702938 -1.258282 54 41 13 0.572855 -0.732797 -0.367214 0.000000 
0.363444 0.635272 -0.995570 92 84 64 -0.573474 0.805842 0.147465 0.000000 
0.367626 0.553156 -0.826321 80 75 53 0.447911 0.870525 0.203867 0.000000 
0.332886 0.779042 -1.536238 78 69 40 0.964910 0.144152 0.219475 0.000000 
0.353551 0.681123 -1.220349 80 71 44 0.999632 -0.027126 -0.001005 0.000000 
0.355925 0.737203 -1.440895 79 64 36 -0.395578 0.909968 0.124404 0.000000 
0.357674 0.524893 -0.704344 51 48 33 -0.963511 0.043401 0.264128 0.000000 
0.347967 0.729308 -1.430103 70 64 45 0.064507 0.769784 0.635036 0.000000 
0.368856 0.516344 -0.671012 87 83 64 -0.594789 -0.716040 -0.365394 0.000000 
0.374819 0.539407 -0.759365 83 79 60 -0.998178 0.047633 -0.037048 0.000000 
0.365449 0.683463 -1.244946 77 66 38 0.945667 -0.127430 -0.299126 0.000000 
0.368824 0.642860 -1.091167 47 38 16 0.886592 -0.449639 -0.108534 0.000000 
0.366521 0.689670 -1.263647 74 66 42 0.783901 -0.620761 -0.012443 0.000000 
0.362526 0.517897 -0.661527 125 115 96 -0.064364 0.977602 0.200378 0.000000 
0.379202 0.627609 -1.034906 67 61 38 -0.434378 0.842288 0.319166 0.000000 
0.367675 0.660560 -1.152974 47 39 16 -0.950082 0.250735 0.185679 0.000000 
0.373382 0.682676 -1.155999 92 83 61 -0.077976 0.982501 0.169149 0.000000 
0.374565 0.559051 -0.833924 76 73 56 -0.913682 0.388002 0.120990 0.000000 
0.338917 0.745681 -1.465343 83 75 50 -0.663978 -0.742779 -0.086098 0.000000 
0.336886 0.745929 -1.486239 119 111 93 -0.230666 -0.967267 -0.105775 0.000000 
0.361919 0.684499 -1.178308 71 64 43 0.769265 -0.626974 -0.123023 0.000000 
0.351061 0.698619 -1.312850 66 61 39 0.795311 0.589395 0.141753 0.000000 
0.364247 0.616551 -0.944131 85 78 55 0.726190 -0.654660 -0.209926 0.000000 
0.328384 0.803191 -1.567384 112 104 87 -0.059019 0.979240 -0.193921 0.000000 
0.378381 0.603384 -0.935087 88 82 61 -0.980981 -0.191497 -0.031720 0.000000 
0.358146 0.519766 -0.681176 75 71 53 -0.859044 0.434862 0.270072 0.000000 
0.369462 0.659700 -1.141471 39 30 7 -0.964717 0.233129 0.122361 0.000000 
0.364851 0.626454 -0.978460 83 73 47 -0.560672 0.749188 0.352654 0.000000 
0.359262 0.588726 -0.883753 61 56 37 0.934184 -0.355326 -0.032302 0.000000 
0.364988 0.592427 -0.874125 87 78 51 -0.374094 0.871868 0.316071 0.000000 
0.363647 0.650955 -1.152210 84 76 56 0.130117 -0.929991 -0.343782 0.000000 
0.361178 0.614747 -0.960495 68 60 38 0.832742 -0.544097 -0.102469 0.000000 
0.362347 0.513175 -0.694674 59 53 40 -0.758047 -0.608000 -0.236010 0.000000 
0.367886 0.582146 -0.912129 104 101 85 0.505833 0.832867 0.224645 0.000000 
0.357514 0.632098 -1.039605 83 77 59 0.999091 0.042013 0.007173 0.000000 
0.365399 0.680321 -1.234511 81 70 44 -0.965190 0.239060 -0.106107 0.000000 
0.384404 0.654685 -1.090423 76 69 49 -0.999476 0.013245 0.029546 0.000000 
0.354606 0.772090 -1.561355 84 73 43 0.283050 -0.907813 -0.309448 0.000000 
0.358831 0.658410 -1.134161 75 66 45 -0.979890 0.187279 0.068870 0.000000 
0.372024 0.695703 -1.204687 89 78 54 0.246401 -0.933508 -0.260481 0.000000 
0.375319 0.581366 -0.876701 79 73 50 -0.989039 0.097148 0.111194 0.000000 
0.354611 0.678692 -1.240819 56 53 36 -0.825156 -0.532505 -0.188564 0.000000 
0.369549 0.495011 -0.626067 100 97 81 0.930223 0.147896 0.335875 0.000000 
0.377274 0.601897 -0.957033 81 77 58 0.867096 -0.496072 -0.045347 0.000000 
0.362361 0.656241 -1.068336 66 63 46 0.707807 -0.689620 -0.153080 0.000000 
0.355945 0.711017 -1.270087 85 79 58 -0.497771 0.838752 0.220724 0.000000 
0.360031 0.668393 -1.138819 53 49 32 -0.952603 0.225652 0.204033 0.000000 
0.357763 0.521471 -0.697434 59 53 33 0.958366 0.280835 0.051633 0.000000 
0.349575 0.693678 -1.268991 90 82 55 0.987525 0.143746 -0.064277 0.000000 
0.361322 0.653441 -1.107703 65 57 36 0.932921 -0.357815 -0.040335 0.000000 
0.359845 0.576189 -0.859263 63 56 38 0.973376 0.216443 0.075446 0.000000 
0.358906 0.495856 -0.606696 97 91 74 0.440150 -0.890207 -0.117468 0.000000 
0.332551 0.780212 -1.535533 82 72 42 -0.968582 -0.086908 -0.233014 0.000000 
0.367147 0.458577 -0.539357 86 82 65 0.903795 -0.415107 -0.104124 0.000000 
0.357413 0.514076 -0.670108 66 61 40 0.986976 -0.114930 -0.112560 0.000000 
0.367804 0.645789 -1.119980 74 67 46 -0.692944 0.720829 0.015337 0.000000 
0.378388 0.565124 -0.824875 111 108 96 0.993143 0.096038 0.066661 0.000000 
0.381862 0.635475 -1.045192 76 71 51 0.928253 -0.364623 -0.073459 0.000000 
0.342334 0.756996 -1.523545 77 68 46 -0.317710 0.948148 -0.008721 0.000000 
0.372582 0.624042 -0.969912 99 92 70 0.492161 0.804341 0.332886 0.000000 
0.371357 0.718056 -1.304403 54 44 16 0.500502 -0.859028 -0.107558 0.000000 
0.369475 0.619823 -0.944118 96 90 69 -0.153439 0.930308 0.333142 0.000000 
0.378053 0.606390 -0.949998 81 75 51 0.996580 -0.031244 -0.076494 0.000000 
0.376215 0.605210 -0.897928 132 121 104 0.934528 0.350941 0.059147 0.000000 
0.356919 0.736847 -1.428110 72 56 26 0.522052 -0.837365 -0.162119 0.000000 
0.341842 0.757337 -1.521275 82 67 38 0.400224 0.857623 0.322961 0.000000 
0.362608 0.636173 -1.095778 68 65 55 -0.647260 -0.725621 -0.233515 0.000000 
0.342395 0.715681 -1.396844 75 74 63 -0.623551 -0.656807 -0.424015 0.000000 
0.369650 0.487013 -0.613848 95 92 72 -0.953802 0.283140 0.100469 0.000000 
0.366722 0.683895 -1.242897 72 61 36 0.982229 -0.113194 -0.149708 0.000000 
0.369082 0.699671 -1.291627 57 46 17 -0.983953 -0.072577 -0.163001 0.000000 
0.372198 0.604765 -0.898869 111 104 76 -0.120902 -0.933256 -0.338254 0.000000 
0.361895 0.681620 -1.256215 62 59 44 -0.483032 0.834889 0.263893 0.000000 
0.357990 0.538009 -0.739294 66 61 40 -0.950029 0.308152 0.049867 0.000000 
0.356119 0.626902 -1.026631 102 95 85 0.978991 0.114523 0.168707 0.000000 
0.357906 0.682662 -1.269733 84 80 68 -0.136450 0.962949 0.232615 0.000000 
0.376270 0.567817 -0.800149 86 83 58 -0.826579 -0.531480 -0.185190 0.000000 
0.373714 0.526741 -0.715948 78 74 55 0.996086 -0.060269 0.064652 0.000000 
0.376635 0.661063 -1.093389 94 85 62 0.344679 0.897942 0.273673 0.000000 
0.362357 0.738380 -1.342442 86 80 59 0.599166 -0.767244 -0.228772 0.000000 
0.352773 0.683913 -1.265427 52 51 36 -0.388636 -0.904904 -0.173524 0.000000 
0.356291 0.506753 -0.645272 89 84 68 -0.966338 0.239997 0.092697 0.000000 
0.371505 0.515198 -0.695706 74 69 48 -0.911902 0.369613 0.178385 0.000000 
0.350586 0.732486 -1.361790 71 66 45 -0.647924 0.702588 0.294219 0.000000 
0.381888 0.640935 -1.050286 90 82 56 0.948065 0.246906 0.200526 0.000000 
0.349161 0.716666 -1.315568 78 68 39 0.951666 -0.280058 -0.126092 0.000000 
0.376354 0.651371 -1.094866 43 33 10 0.163252 -0.939726 -0.300438 0.000000 
0.373415 0.686177 -1.208367 53 43 18 0.604738 -0.747590 -0.274592 0.000000 
0.376008 0.670010 -1.148603 55 44 17 0.372373 -0.886816 -0.273672 0.000000 
0.356597 0.527102 -0.710915 78 73 50 -0.992434 0.111776 -0.050807 0.000000 
0.355724 0.673433 -1.215891 54 50 33 0.880189 0.437898 0.183068 0.000000 
0.364797 0.526618 -0.691578 91 85 63 -0.065289 0.926036 0.371747 0.000000 
0.360156 0.637789 -1.089828 86 82 74 0.856594 0.493457 0.150819 0.000000 
0.373063 0.531685 -0.751109 80 77 60 -0.801296 0.546126 0.244278 0.000000 
0.367270 0.468028 -0.552444 82 77 53 -0.912869 -0.366002 -0.180865 0.000000 
0.355502 0.499107 -0.614809 82 81 63 0.897798 -0.440405 0.001307 0.000000 
0.366079 0.665427 -1.193845 64 56 39 0.803562 -0.583206 -0.118992 0.000000 
0.356871 0.666040 -1.159855 76 67 46 -0.983659 0.177686 -0.029034 0.000000 
0.378536 0.600727 -0.933679 71 66 45 -0.991946 0.105914 0.069470 0.000000 
0.362466 0.753687 -1.414328 58 50 27 0.826220 0.563145 0.015072 0.000000 
0.375386 0.584754 -0.872900 86 78 53 0.980191 0.197890 -0.008101 0.000000 
0.366513 0.559964 -0.845887 59 58 42 0.291208 0.804363 0.517878 0.000000 
0.369383 0.654028 -1.146278 61 51 34 -0.923153 0.350547 0.157816 0.000000 
0.359422 0.542849 -0.744430 77 70 43 -0.906139 0.403197 0.127843 0.000000 
0.369294 0.612427 -0.927710 94 87 65 -0.102125 0.978190 0.180873 0.000000 
0.342593 0.764804 -1.471035 95 85 56 0.860653 -0.327941 -0.389526 0.000000 
0.354327 0.663577 -1.169510 103 99 87 -0.964380 -0.252184 0.079837 0.000000 
0.352180 0.686132 -1.239197 65 60 39 0.999801 -0.013063 0.015072 0.000000 
0.345249 0.714559 -1.367388 68 62 40 0.853745 0.513946 -0.083534 0.000000 
0.365801 0.608711 -0.983842 64 58 44 -0.153903 -0.941124 -0.300996 0.000000 
0.361749 0.492111 -0.645270 76 77 66 0.045502 -0.864530 -0.500517 0.000000 
0.364016 0.594640 -0.882196 83 75 56 0.588844 -0.800299 -0.113070 0.000000 
0.370514 0.534425 -0.721985 88 83 59 0.773083 0.552202 0.312114 0.000000 
0.372470 0.510735 -0.680986 81 76 55 0.910608 -0.399341 0.106399 0.000000 
0.335815 0.746786 -1.479825 117 109 93 -0.917598 -0.392491 -0.062959 0.000000 
0.375763 0.596179 -0.911395 73 66 45 0.957569 0.173983 0.229763 0.000000 
0.357141 0.661461 -1.155599 51 48 33 0.990082 0.110267 -0.087053 0.000000 
0.342749 0.766625 -1.588337 85 79 60 -0.041013 -0.994277 -0.098652 0.000000 
0.374736 0.581740 -0.858778 81 74 52 0.965512 0.236582 0.108700 0.000000 
0.361153 0.749338 -1.480816 63 60 45 0.103530 -0.989929 -0.096550 0.000000 
0.357317 0.636868 -1.060562 64 59 45 -0.976851 -0.212462 0.024926 0.000000 
0.363566 0.646441 -1.136187 68 66 53 0.312469 0.923138 0.224007 0.000000 
0.374743 0.587269 -0.860449 95 91 71 -0.935919 -0.253216 -0.244822 0.000000 
0.364269 0.696591 -1.301701 79 69 43 0.496583 -0.819283 -0.286671 0.000000 
0.360924 0.739686 -1.359785 96 88 58 0.672209 -0.688176 -0.273035 0.000000 
0.347359 0.761917 -1.537746 83 67 35 -0.292594 0.949274 0.115184 0.000000 
0.359001 0.583407 -0.878445 55 52 35 -0.994895 -0.065585 -0.076701 0.000000 
0.370820 0.627708 -1.038511 43 39 15 -0.469848 0.831989 0.295021 0.000000 
0.376906 0.601934 -0.924175 81 74 49 -0.906570 -0.391376 -0.157974 0.000000 
0.365479 0.681128 -1.238247 80 70 45 0.952326 -0.303184 -0.033967 0.000000 
0.372294 0.689077 -1.211609 54 42 16 0.528339 -0.799606 -0.285461 0.000000 
0.351895 0.707445 -1.350937 73 68 51 -0.291636 -0.907150 -0.303360 0.000000 
0.364617 0.639975 -1.105571 59 52 37 -0.213033 0.955298 0.204994 0.000000 
0.360818 0.679191 -1.168423 79 70 46 -0.826658 0.535602 0.172533 0.000000 
0.363563 0.526697 -0.736368 36 34 17 0.821567 0.560752 0.102877 0.000000 
0.356393 0.673403 -1.174878 67 62 43 -0.956816 0.267595 0.113565 0.000000 
0.358445 0.500259 -0.625335 81 76 53 0.772334 -0.584342 -0.249089 0.000000 
0.351760 0.700932 -1.228207 94 86 70 -0.678744 0.619292 0.394695 0.000000 
0.356934 0.637247 -1.066419 82 76 62 0.933050 0.342615 0.109691 0.000000 
0.363370 0.717406 -1.385323 72 64 43 -0.519159 0.854364 -0.023165 0.000000 
0.371368 0.485827 -0.602214 91 88 68 0.866056 0.429236 0.256328 0.000000 
0.362002 0.606325 -0.932429 73 65 44 0.862963 -0.493735 -0.107334 0.000000 
0.363581 0.557711 -0.775000 101 93 72 0.506752 -0.767460 -0.392692 0.000000 
0.363592 0.757201 -1.417482 64 58 38 0.899966 0.427173 0.087093 0.000000 
0.361945 0.461711 -0.551376 97 92 75 0.962840 0.248102 0.106697 0.000000 
0.346387 0.711147 -1.330561 87 79 54 0.987196 0.148021 -0.059442 0.000000 
0.367611 0.722678 -1.351966 44 32 6 0.987910 -0.145110 -0.054561 0.000000 
0.361027 0.707823 -1.350348 74 66 42 -0.374855 0.888599 0.264340 0.000000 
0.360682 0.610246 -0.979558 59 52 35 -0.763282 -0.547045 -0.343719 0.000000 
0.323130 0.799007 -1.562929 118 114 102 0.989726 0.001108 -0.142973 0.000000 
0.357579 0.755941 -1.510485 93 78 48 -0.007895 -0.986876 -0.161284 0.000000 
0.367058 0.539307 -0.785237 52 47 31 0.506930 0.783729 0.358874 0.000000 
0.358759 0.531182 -0.717757 69 63 45 -0.878013 0.467991 0.100385 0.000000 
0.357268 0.510000 -0.649815 77 71 54 0.944992 -0.293367 -0.144655 0.000000 
0.370997 0.626068 -0.973721 97 89 61 -0.045069 -0.880889 -0.471173 0.000000 
0.368033 0.489934 -0.626277 73 68 46 0.565064 -0.777160 -0.276992 0.000000 
0.359922 0.478324 -0.599410 76 69 53 0.825562 0.548903 -0.130971 0.000000 
0.376599 0.630241 -1.000093 85 76 48 0.801296 0.546126 0.244278 0.000000 
0.377642 0.615861 -0.967508 80 74 51 0.932748 0.312770 0.179321 0.000000 
0.359139 0.567262 -0.833611 61 57 39 -0.896544 -0.439429 -0.055779 0.000000 
0.367351 0.555412 -0.769679 105 97 69 -0.152061 -0.922132 -0.355739 0.000000 
0.360365 0.531000 -0.735429 45 43 26 -0.834991 -0.542816 -0.090231 0.000000 
0.374442 0.547750 -0.800981 77 73 57 -0.814902 0.570867 -0.100229 0.000000 
0.337105 0.756822 -1.473796 94 82 57 -0.977584 0.120490 0.172661 0.000000 
0.340931 0.759934 -1.460183 102 91 62 -0.872413 0.467312 0.143232 0.000000 
0.369909 0.646783 -1.100636 33 26 5 0.966311 -0.250617 -0.058602 0.000000 
0.357564 0.667904 -1.162791 63 57 35 0.971387 -0.221281 -0.086262 0.000000 
0.358713 0.636849 -1.053634 73 64 45 -0.993513 -0.014240 0.112825 0.000000 
0.371292 0.537224 -0.780345 82 80 68 0.530887 -0.764672 -0.365289 0.000000 
0.367690 0.670022 -1.174889 41 32 7 0.947678 -0.319205 -0.003726 0.000000 
0.353049 0.723848 -1.311549 96 81 55 0.501046 -0.815181 -0.290575 0.000000 
0.361430 0.654425 -1.163601 69 65 52 0.240220 -0.919164 -0.312142 0.000000 
0.359510 0.520540 -0.699239 59 53 36 0.898239 0.424597 0.113506 0.000000 
0.358119 0.477722 -0.578926 73 65 35 0.926777 0.358973 0.110558 0.000000 
0.359130 0.592921 -0.909717 71 64 42 0.996733 -0.039956 0.070192 0.000000 
0.380339 0.629745 -1.019283 81 74 51 -0.948045 -0.259794 -0.183624 0.000000 
0.372596 0.544255 -0.742801 87 83 61 -0.724736 -0.653042 -0.219759 0.000000 
0.365981 0.561331 -0.845665 81 74 61 0.476951 0.776470 0.411839 0.000000 
0.364969 0.521876 -0.729259 45 42 28 -0.578283 -0.788007 -0.211266 0.000000 
0.368188 0.462283 -0.551911 91 88 73 0.762217 -0.613793 -0.205628 0.000000 
0.365412 0.684268 -1.254636 67 60 41 0.890265 -0.444432 -0.099541 0.000000 
0.378215 0.610046 -0.955025 80 73 49 0.987878 0.109764 0.109764 0.000000 
0.352651 0.716521 -1.298086 93 84 60 0.700693 -0.659194 -0.272935 0.000000 
0.349242 0.698217 -1.277750 64 60 39 -0.999496 0.005053 0.031329 0.000000 
0.377922 0.605269 -0.965017 83 78 59 0.816721 -0.526468 -0.236216 0.000000 
0.358385 0.482661 -0.614270 100 99 81 0.860310 0.440053 0.257332 0.000000 
0.363398 0.629250 -1.055234 61 54 35 -0.129030 -0.960558 -0.246330 0.000000 
0.375041 0.688538 -1.176809 90 78 50 -0.024120 -0.943207 -0.331328 0.000000 
0.362962 0.680129 -1.160401 83 72 49 -0.543805 0.834976 0.084211 0.000000 
0.375026 0.539108 -0.743638 76 70 48 -0.999544 0.007089 -0.029369 0.000000 
0.368470 0.636943 -1.004333 96 87 66 0.123167 -0.952229 -0.279444 0.000000 
0.363976 0.617399 -1.012213 59 58 42 -0.116327 -0.967690 -0.223706 0.000000 
0.364968 0.688229 -1.241963 51 39 10 0.980491 -0.001149 -0.196558 0.000000 
0.358383 0.768488 -1.477408 74 69 51 0.676202 0.548680 0.491631 0.000000 
0.334288 0.761826 -1.559067 98 89 66 -0.580457 -0.779649 -0.234984 0.000000 
0.363447 0.461898 -0.545896 69 66 44 0.670604 0.727870 0.143163 0.000000 
0.363485 0.755998 -1.426270 47 41 19 0.979587 0.147000 0.137117 0.000000 
0.353746 0.676132 -1.222137 57 54 36 0.953817 0.284974 0.094991 0.000000 
0.378186 0.610719 -0.952467 70 64 44 -0.996554 0.078477 0.026876 0.000000 
0.373034 0.586581 -0.918596 75 73 58 0.509528 -0.841245 -0.180800 0.000000 
0.359948 0.597839 -0.939289 60 54 38 0.634356 0.757913 0.152185 0.000000 
0.367838 0.678528 -1.146286 87 77 53 0.190192 -0.913780 -0.358934 0.000000 
0.365954 0.657731 -1.161845 63 56 36 -0.871910 0.458669 0.171451 0.000000 
0.362774 0.466962 -0.527305 108 104 84 -0.312151 -0.946902 -0.077058 0.000000 
0.357076 0.709057 -1.362175 71 64 45 -0.525839 0.820187 0.225360 0.000000 
0.372561 0.706202 -1.236470 99 88 65 0.402921 -0.892288 -0.203658 0.000000 
0.342359 0.751999 -1.434845 88 78 50 -0.757250 0.529261 0.382696 0.000000 
0.361946 0.611364 -0.944396 82 71 45 -0.883536 0.441045 0.157619 0.000000 
0.372735 0.720713 -1.322105 53 42 10 0.787860 -0.582065 -0.201189 0.000000 
0.369426 0.495732 -0.642870 70 65 40 0.759802 -0.618013 -0.201895 0.000000 
0.337675 0.763220 -1.567848 103 94 74 0.297433 0.921035 0.251453 0.000000 
0.378677 0.608987 -0.964276 82 76 54 0.981953 -0.187538 -0.024461 0.000000 
0.380908 0.617234 -0.986796 100 92 70 -0.965092 -0.146777 -0.216918 0.000000 
0.372430 0.543652 -0.733498 138 128 110 0.733532 0.643203 0.219592 0.000000 
0.375815 0.565055 -0.813031 92 85 59 0.957807 0.283189 0.049086 0.000000 
0.357279 0.486947 -0.620051 94 92 76 0.970006 0.195535 0.144415 0.000000 
0.360941 0.482742 -0.574282 91 86 66 0.574226 0.810930 0.112507 0.000000 
0.349156 0.726625 -1.341064 88 79 55 0.768112 -0.628994 -0.119879 0.000000 
0.376853 0.668530 -1.144182 57 46 19 0.347502 -0.893362 -0.284862 0.000000 
0.359994 0.630863 -1.051625 53 48 32 0.734219 0.678911 0.001383 0.000000 
0.356100 0.670398 -1.178162 70 62 40 0.974592 -0.195917 -0.108565 0.000000 
0.367966 0.546718 -0.726488 102 99 83 -0.166457 -0.890184 -0.424104 0.000000 
0.371374 0.677868 -1.196690 47 36 10 -0.688834 0.718209 0.098405 0.000000 
0.369467 0.545911 -0.739300 97 90 64 -0.309074 -0.924375 -0.223616 0.000000 
0.369472 0.652655 -1.122566 40 33 11 0.944000 -0.246680 -0.219118 0.000000 
0.375709 0.584827 -0.882884 73 68 48 0.990369 0.109784 0.084360 0.000000 
0.368022 0.477252 -0.590399 78 74 56 0.932574 -0.290290 -0.214562 0.000000 
0.348479 0.723270 -1.328290 85 78 51 0.857179 -0.511520 -0.059933 0.000000 
0.355691 0.495913 -0.623761 103 98 84 0.989041 0.135342 -0.058995 0.000000 
0.364607 0.490692 -0.599949 104 100 80 -0.683576 -0.673971 -0.280154 0.000000 
0.363769 0.524275 -0.682136 99 93 74 -0.200669 0.920802 0.334449 0.000000 
0.379605 0.612253 -0.978670 82 76 56 0.779888 -0.478310 -0.403726 0.000000 
0.375660 0.580144 -0.867945 84 77 53 -0.998340 -0.007272 -0.057137 0.000000 
0.358517 0.509251 -0.670760 63 56 40 0.937461 0.281933 0.204158 0.000000 
0.376515 0.613331 -0.936606 102 96 70 0.896796 0.438160 0.061424 0.000000 
0.349648 0.694187 -1.270123 63 59 40 -0.986557 -0.142962 0.079161 0.000000 
0.364812 0.707628 -1.305418 44 33 5 -0.965705 -0.252952 0.058565 0.000000 
0.360816 0.602480 -0.918885 60 55 37 -0.864664 0.474171 0.165886 0.000000 
0.358263 0.511250 -0.672257 68 61 45 0.922170 0.372966 0.102463 0.000000 
0.354627 0.668261 -1.167839 85 79 62 0.956433 -0.238110 -0.168939 0.000000 
0.358091 0.751030 -1.482971 74 64 40 -0.127313 0.983341 0.129738 0.000000 
0.354425 0.673255 -1.205271 52 49 32 0.963135 0.268013 -0.023252 0.000000 
0.371636 0.509362 -0.681178 81 74 52 -0.800499 0.573514 -0.174021 0.000000 
0.359145 0.483693 -0.615013 76 71 43 -0.886334 -0.289446 -0.361432 0.000000 
0.358415 0.558977 -0.796618 57 54 36 0.963762 -0.254555 -0.079786 0.000000 
0.377742 0.609431 -0.950189 83 76 51 -0.997882 0.024339 0.060317 0.000000 
0.358862 0.586489 -0.883358 71 63 42 0.987156 -0.159438 -0.010177 0.000000 
0.355176 0.690972 -1.226213 87 77 47 0.954780 -0.274483 -0.114258 0.000000 
0.344648 0.728985 -1.367971 84 75 47 0.797104 -0.601025 -0.058255 0.000000 
0.362705 0.688319 -1.274155 77 71 48 -0.510641 0.809170 0.290673 0.000000 
0.369748 0.491129 -0.628199 72 67 44 0.740738 -0.638246 -0.209643 0.000000 
0.368534 0.489484 -0.611651 103 97 73 -0.909186 -0.352364 -0.221859 0.000000 
0.376061 0.593964 -0.914602 69 64 44 -0.993983 -0.072840 -0.081805 0.000000 
0.367558 0.598216 -0.882134 97 90 64 0.165607 -0.985538 -0.035901 0.000000 
0.378244 0.625755 -0.977699 128 115 95 0.761831 0.642840 0.079811 0.000000 
0.369509 0.725367 -1.336989 48 38 11 0.677452 -0.727633 -0.107743 0.000000 
0.369692 0.646494 -1.097115 33 26 5 0.911590 -0.395439 -0.112388 0.000000 
0.366294 0.567168 -0.795420 123 114 93 0.100615 -0.874360 -0.474733 0.000000 
0.352616 0.688952 -1.236810 93 84 58 -0.970531 0.202247 0.131015 0.000000 
0.357508 0.754052 -1.406360 98 90 63 -0.640784 0.728951 0.240885 0.000000 
0.376592 0.639781 -0.999790 82 79 54 -0.026652 -0.983797 0.177292 0.000000 
0.358148 0.674315 -1.171541 72 64 41 -0.947653 0.304461 0.096215 0.000000 
0.359411 0.559992 -0.783305 96 90 75 0.670813 -0.714192 -0.199850 0.000000 
0.366129 0.672784 -1.124230 94 82 60 -0.354042 0.799397 0.485406 0.000000 
0.379856 0.611191 -0.970091 80 75 53 0.936191 -0.325691 0.132184 0.000000 
0.368661 0.531067 -0.701439 108 100 74 -0.384504 -0.851514 -0.356484 0.000000 
0.347398 0.736948 -1.388507 87 76 48 -0.782822 0.585187 0.211532 0.000000 
0.356720 0.490087 -0.589539 107 104 89 -0.537790 0.226519 0.812078 0.000000 
0.369837 0.646203 -1.094387 34 27 5 -0.893327 0.438998 0.096162 0.000000 
0.347233 0.709587 -1.348053 87 80 56 -0.866890 -0.497126 -0.036976 0.000000 
0.376236 0.656422 -1.060180 119 117 104 -0.525389 -0.698851 -0.485359 0.000000 
0.359497 0.761515 -1.416139 72 67 49 -0.052870 -0.898797 -0.435164 0.000000 
0.356884 0.735580 -1.355037 97 88 64 0.670256 -0.719336 -0.182518 0.000000 
0.362667 0.635327 -1.009192 84 75 52 0.739217 -0.622082 -0.258014 0.000000 
0.363580 0.707840 -1.347981 77 69 44 -0.563676 0.778410 0.276312 0.000000 
0.336541 0.776549 -1.551514 68 60 33 -0.999488 -0.019358 0.025471 0.000000 
0.345361 0.732369 -1.382602 87 76 46 -0.759521 0.629144 0.165245 0.000000 
0.378320 0.606238 -0.947569 81 75 52 -0.999633 -0.001003 0.027071 0.000000 
0.370291 0.672090 -1.122509 93 83 58 -0.087003 -0.932944 -0.349352 0.000000 
0.364244 0.504546 -0.681183 64 60 46 -0.443255 -0.780973 -0.440008 0.000000 
0.373194 0.511004 -0.664110 118 117 107 0.983667 0.171227 0.055501 0.000000 
0.357137 0.706910 -1.357800 70 66 47 0.440278 -0.897744 0.014544 0.000000 
0.356661 0.663398 -1.162156 75 67 46 -0.997273 -0.044108 0.059169 0.000000 
0.368210 0.631992 -1.060435 43 38 17 0.649902 -0.743828 -0.156037 0.000000 
0.373430 0.532130 -0.728490 75 70 51 -0.947162 -0.264988 -0.180735 0.000000 
0.364575 0.480596 -0.566796 135 132 115 0.562206 0.814383 0.143889 0.000000 
0.364072 0.525449 -0.738954 63 58 45 0.586667 0.741819 0.324849 0.000000 
0.367013 0.660788 -1.164033 66 56 31 0.983989 -0.170872 -0.050673 0.000000 
0.362600 0.694358 -1.213998 92 83 54 -0.393754 0.839277 0.374929 0.000000 
0.362140 0.463809 -0.531766 61 57 40 0.374403 0.841231 -0.390068 0.000000 
0.363659 0.690820 -1.284888 75 69 44 -0.465140 0.881392 0.082412 0.000000 
0.337743 0.745290 -1.485736 117 108 89 -0.098670 -0.980609 -0.169323 0.000000 
0.375756 0.616252 -0.933861 133 122 104 0.602806 0.793622 0.082398 0.000000 
0.360349 0.492055 -0.597734 77 70 48 0.237474 0.925722 0.294354 0.000000 
0.370127 0.596117 -0.878182 109 100 83 0.307384 0.904503 0.295618 0.000000 
0.372687 0.520247 -0.691948 92 85 62 0.998283 0.045425 0.036973 0.000000 
0.351733 0.714386 -1.380867 64 57 37 0.129267 -0.968862 -0.211179 0.000000 
0.360080 0.667969 -1.115204 121 113 94 0.877493 -0.459639 -0.136883 0.000000 
0.357968 0.701390 -1.340507 79 76 59 -0.446382 0.828093 0.339124 0.000000 
0.334387 0.769822 -1.509064 79 70 43 0.953359 0.300201 -0.031402 0.000000 
0.374843 0.570591 -0.859860 75 71 53 0.908582 -0.416599 -0.030418 0.000000 
0.341097 0.760373 -1.458913 105 93 64 0.896140 -0.443437 -0.017208 0.000000 
0.348946 0.702362 -1.317186 82 75 51 0.910618 0.408766 0.060708 0.000000 
0.370814 0.508182 -0.655625 103 96 71 0.947723 0.126987 0.292738 0.000000 
0.339272 0.769484 -1.578942 96 83 57 -0.430881 -0.902362 -0.009168 0.000000 
0.381563 0.630885 -1.026951 84 77 53 0.984584 -0.065165 -0.162320 0.000000 
0.360580 0.646149 -1.052050 77 68 44 0.970813 -0.221721 -0.091444 0.000000 
0.359092 0.704882 -1.353426 87 83 66 -0.416592 0.859318 0.296688 0.000000 
0.367289 0.723542 -1.342471 40 28 3 -0.917086 0.383609 -0.108620 0.000000 
0.360960 0.589400 -0.871714 62 59 41 0.696932 -0.681270 -0.223958 0.000000 
0.356771 0.727312 -1.323648 91 82 54 0.489199 -0.847443 -0.206216 0.000000 
0.376628 0.655827 -1.079662 94 86 63 -0.199340 -0.956564 -0.212718 0.000000 
0.338250 0.785134 -1.511582 110 101 77 0.604518 -0.718578 -0.343809 0.000000 
0.373098 0.518330 -0.699398 84 79 57 -0.954175 0.298102 0.026193 0.000000 
0.346143 0.716870 -1.339468 64 59 37 0.899246 -0.236180 -0.368207 0.000000 
0.369870 0.452607 -0.505068 94 91 66 0.972367 0.098864 -0.211493 0.000000 
0.359145 0.648718 -1.084965 60 53 33 -0.987609 0.126253 -0.093215 0.000000 
0.369459 0.539556 -0.785672 78 73 52 0.257794 -0.889612 -0.377005 0.000000 
0.363503 0.489823 -0.596000 91 86 62 -0.650798 -0.725710 -0.223175 0.000000 
0.367312 0.631612 -0.988160 90 81 58 -0.142893 -0.876119 -0.460432 0.000000 
0.372622 0.612046 -0.926752 103 95 69 0.444692 0.773732 0.451208 0.000000 
0.360106 0.591401 -0.885080 59 56 38 0.835971 -0.543594 -0.075223 0.000000 
0.379938 0.660985 -1.118782 58 50 26 -0.281851 0.881725 0.378313 0.000000 
0.364055 0.596346 -0.935215 43 39 23 0.374046 0.884792 0.277906 0.000000 
0.368688 0.471957 -0.576360 79 76 61 0.893046 -0.444459 -0.070178 0.000000 
0.374651 0.598241 -0.896199 92 83 54 0.914250 0.357998 0.189696 0.000000 
0.377310 0.600973 -0.924115 80 73 49 0.943430 0.282619 0.173395 0.000000 
0.375605 0.688864 -1.208416 56 44 17 -0.452521 0.851352 0.265376 0.000000 
0.336318 0.758100 -1.479660 95 83 56 0.976777 -0.082320 -0.197813 0.000000 
0.361163 0.638590 -1.030944 79 69 46 0.933479 -0.325824 -0.149852 0.000000 
0.376254 0.605323 -0.936198 73 67 45 -0.952846 -0.267863 -0.142594 0.000000 
0.367622 0.720021 -1.364549 69 59 29 0.976083 -0.211666 -0.049590 0.000000 
0.359786 0.578998 -0.875065 54 49 30 -0.872663 -0.488099 -0.014791 0.000000 
0.363355 0.455051 -0.506252 104 100 82 0.964884 -0.214274 -0.151940 0.000000 
0.369514 0.558532 -0.842163 65 64 49 -0.037126 -0.976047 -0.214371 0.000000 
0.364552 0.489179 -0.579433 131 124 107 -0.053845 0.868424 0.492889 0.000000 
0.366777 0.721041 -1.367054 68 58 31 -0.971538 0.182084 0.151524 0.000000 
0.375000 0.673538 -1.165543 43 34 9 -0.503654 0.818632 0.275996 0.000000 
0.362913 0.457469 -0.558474 71 69 48 -0.057968 -0.907259 -0.416557 0.000000 
0.366358 0.689866 -1.187748 86 76 49 -0.388034 0.887573 0.248282 0.000000 
0.373050 0.517349 -0.688827 77 73 54 0.996213 -0.055770 0.066706 0.000000 
0.364939 0.602993 -0.954311 48 44 26 -0.234602 -0.939797 -0.248484 0.000000 
0.362290 0.500316 -0.670877 78 79 70 0.520714 0.786678 0.331655 0.000000 
0.374765 0.570155 -0.815137 101 95 74 0.880902 0.451264 0.142732 0.000000 
0.368469 0.483243 -0.614356 80 76 60 0.621206 -0.696602 -0.358955 0.000000 
0.359568 0.580059 -0.864245 71 63 43 0.996817 0.037799 -0.070198 0.000000 
0.361854 0.459090 -0.525168 79 72 52 -0.465966 -0.721336 -0.512397 0.000000 
0.368989 0.731094 -1.369595 34 25 4 -0.870380 0.482601 -0.097652 0.000000 
0.337352 0.756581 -1.535107 81 72 48 0.700982 0.709654 0.070821 0.000000 
0.359750 0.645789 -1.112628 71 65 52 -0.889489 -0.435464 -0.138492 0.000000 
0.366065 0.692719 -1.278954 71 61 36 -0.657486 0.751616 0.052770 0.000000 
0.374706 0.573041 -0.850717 84 78 56 0.982049 -0.173867 -0.073144 0.000000 
0.344148 0.716846 -1.370913 77 69 46 0.939198 0.342109 0.029470 0.000000 
0.366638 0.680184 -1.220247 51 42 14 0.997037 -0.003159 0.076857 0.000000 
0.376885 0.564462 -0.829299 93 87 64 0.998426 -0.017736 -0.053208 0.000000 
0.366700 0.671399 -1.184345 43 34 9 0.996479 -0.078641 0.029086 0.000000 
0.359668 0.688442 -1.276668 61 57 36 -0.400952 0.878490 0.259793 0.000000 
0.377611 0.654584 -1.080112 88 78 56 -0.237831 -0.944449 -0.226833 0.000000 
0.370050 0.558329 -0.842033 74 74 62 0.018501 0.958372 0.284921 0.000000 
0.350576 0.696287 -1.293793 83 76 53 0.926552 0.372993 0.048766 0.000000 
0.360179 0.598668 -0.916448 72 63 40 -0.945281 0.292619 0.144287 0.000000 
0.333698 0.767422 -1.537135 82 72 43 0.982567 0.107828 -0.151444 0.000000 
0.346601 0.732125 -1.376855 86 77 47 0.689576 -0.710608 -0.139718 0.000000 
0.345906 0.714129 -1.364329 76 69 46 -0.892963 -0.449799 -0.017249 0.000000 
0.368416 0.463981 -0.533818 81 79 59 0.936195 0.178389 0.302846 0.000000 
0.373934 0.602675 -0.910406 79 72 49 -0.794869 -0.594308 -0.122401 0.000000 
0.357701 0.704259 -1.251323 87 77 48 0.497697 -0.822215 -0.276152 0.000000 
0.375728 0.669721 -1.148336 54 43 16 -0.388102 0.892782 0.228729 0.000000 
0.375936 0.519447 -0.688176 132 130 119 0.949433 0.185553 -0.253272 0.000000 
0.355980 0.496464 -0.612431 86 82 60 0.993250 -0.102131 -0.054993 0.000000 
0.358792 0.481089 -0.579912 58 53 36 0.511013 0.031510 -0.858995 0.000000 
0.371270 0.642316 -1.035406 79 72 48 -0.618204 -0.764741 -0.181645 0.000000 
0.377501 0.583479 -0.867695 101 93 66 -0.993920 -0.092796 0.059255 0.000000 
0.362065 0.640091 -1.091801 53 48 31 -0.882062 -0.446083 -0.151582 0.000000 
0.372304 0.639104 -1.016093 95 86 58 0.515128 0.853843 0.074799 0.000000 
0.379095 0.616102 -0.984822 84 77 53 -0.998676 0.009295 -0.050605 0.000000 
0.345201 0.738941 -1.399643 85 75 47 0.774973 -0.572944 -0.266742 0.000000 
0.334634 0.760752 -1.501489 96 85 54 -0.992753 -0.119569 -0.012067 0.000000 
0.333828 0.774226 -1.563059 85 75 46 0.985484 0.019503 -0.168645 0.000000 
0.371245 0.533747 -0.765789 79 77 64 -0.526613 0.803281 0.278240 0.000000 
0.363561 0.574298 -0.823646 90 81 60 -0.530026 0.814355 0.236426 0.000000 
0.371802 0.523547 -0.692151 99 91 66 0.917661 0.397002 -0.016921 0.000000 
0.369102 0.547225 -0.808293 80 75 57 -0.195909 0.925985 0.322756 0.000000 
0.377809 0.601407 -0.947369 79 74 54 -0.974592 0.217793 -0.052319 0.000000 
0.359275 0.643840 -1.057890 53 49 30 -0.960503 0.264746 0.085691 0.000000 
0.365124 0.714274 -1.310895 45 34 6 -0.852472 0.518224 -0.068816 0.000000 
0.369364 0.716673 -1.317214 42 31 4 -0.806886 0.590235 -0.023609 0.000000 
0.358751 0.556943 -0.799986 54 51 32 0.993323 0.012020 0.114740 0.000000 
0.364834 0.514190 -0.656746 96 90 70 0.404514 0.823305 0.398168 0.000000 
0.353728 0.694386 -1.228585 91 81 61 -0.858275 0.451164 0.244570 0.000000 
0.368633 0.606247 -0.913118 94 84 63 -0.052483 -0.972760 -0.225797 0.000000 
0.375779 0.615255 -0.950500 90 82 54 -0.861300 -0.490724 -0.131728 0.000000 
0.338077 0.768271 -1.479508 82 76 55 0.911458 -0.245672 -0.329985 0.000000 
0.370004 0.508539 -0.678293 76 71 50 0.715853 -0.695769 -0.058818 0.000000 
0.351079 0.697577 -1.298607 58 54 36 0.942421 0.278474 0.185192 0.000000 
0.357728 0.553168 -0.791685 69 65 42 0.972262 0.229984 0.042590 0.000000 
0.379023 0.601573 -0.929751 93 86 66 0.983996 0.178186 0.001135 0.000000 
0.360646 0.648493 -1.055926 54 51 33 0.950920 -0.292490 -0.100994 0.000000 
0.377858 0.583410 -0.870472 99 91 63 0.979475 0.193491 0.056485 0.000000 
0.373427 0.520544 -0.691248 100 94 73 -0.995293 -0.080461 -0.054008 0.000000 
0.361962 0.453718 -0.514445 88 81 64 -0.872970 -0.468951 -0.134192 0.000000 
0.364897 0.480673 -0.578936 105 97 70 0.721773 0.656299 0.219806 0.000000 
0.363966 0.669893 -1.207552 74 69 48 -0.810770 0.460339 0.361581 0.000000 
0.366780 0.559050 -0.777940 105 97 69 0.118493 -0.930235 -0.347306 0.000000 
0.356997 0.666578 -1.153708 82 73 51 -0.995401 0.025021 0.092469 0.000000 
0.370237 0.457265 -0.532983 105 98 71 0.903852 -0.365325 -0.222688 0.000000 
0.381999 0.644129 -1.072461 78 68 43 -0.621574 0.746828 0.236417 0.000000 
0.359101 0.625636 -0.997624 54 50 32 0.889428 -0.445417 -0.102572 0.000000 
0.334491 0.782267 -1.518662 95 85 59 -0.897952 0.374759 0.230734 0.000000 
0.374349 0.629780 -0.988778 93 85 59 0.595397 0.776939 0.204619 0.000000 
0.336256 0.762170 -1.509241 77 68 41 0.997168 0.033203 0.067478 0.000000 
0.369468 0.509368 -0.690767 72 70 53 0.618274 -0.687521 -0.380857 0.000000 
0.370766 0.493567 -0.630351 82 76 53 -0.938202 0.310908 -0.152030 0.000000 
0.364496 0.684035 -1.252797 84 74 49 -0.861652 0.500633 0.083204 0.000000 
0.357766 0.605849 -0.960237 94 87 75 -0.938113 -0.342196 -0.053346 0.000000 
0.379183 0.615694 -0.981872 84 77 53 0.996024 0.079464 -0.040276 0.000000 
0.381199 0.664075 -1.108098 90 82 57 0.224108 0.912335 0.342668 0.000000 
0.375158 0.648572 -1.050345 90 81 53 -0.594123 -0.774066 -0.218724 0.000000 
0.358395 0.582030 -0.868712 69 62 40 -0.989001 0.113530 0.094804 0.000000 
0.367359 0.659081 -1.151516 51 43 18 -0.922439 0.340441 0.182228 0.000000 
0.364612 0.653660 -1.057214 90 80 56 0.309153 -0.927460 -0.210337 0.000000 
0.360363 0.737975 -1.354243 92 85 59 -0.665569 0.734369 0.133114 0.000000 
0.364773 0.560525 -0.849636 77 78 70 -0.440382 -0.864118 -0.243648 0.000000 
0.338127 0.753870 -1.516340 90 81 58 -0.536366 -0.824831 -0.178789 0.000000 
0.368370 0.677734 -1.201247 45 35 8 -0.899505 0.429840 0.078278 0.000000 
0.365615 0.483796 -0.616706 77 70 44 -0.375166 0.809401 0.451796 0.000000 
0.359312 0.632097 -1.022750 71 62 41 -0.959975 0.273738 -0.059289 0.000000 
0.339664 0.730860 -1.419146 86 82 66 0.851992 0.516316 0.086764 0.000000 
0.365352 0.455232 -0.532056 95 87 71 0.797373 -0.562943 -0.217465 0.000000 
0.376193 0.556059 -0.799974 97 90 66 -0.999995 -0.000979 -0.002938 0.000000 
0.370067 0.530497 -0.704807 109 103 79 -0.551100 -0.779798 -0.296990 0.000000 
0.372748 0.524385 -0.702961 90 84 61 0.939473 0.291085 0.180721 0.000000 
0.370192 0.708831 -1.367039 110 106 89 0.024025 0.944548 0.327494 0.000000 
0.371904 0.507622 -0.666943 87 80 56 -0.900566 0.427597 0.078370 0.000000 
0.356553 0.546461 -0.766147 86 80 54 0.977596 -0.130429 0.165210 0.000000 
0.367177 0.560337 -0.838961 37 36 22 0.605723 0.739973 0.292473 0.000000 
0.371639 0.504651 -0.656985 84 79 57 -0.990824 0.118256 -0.065443 0.000000 
0.364206 0.479667 -0.608513 79 70 43 0.204609 -0.917165 -0.341970 0.000000 
0.342225 0.751584 -1.510417 68 62 42 -0.254998 -0.910708 -0.324941 0.000000 
0.339903 0.740111 -1.420645 80 73 50 -0.930472 0.326847 0.165510 0.000000 
0.357716 0.756078 -1.513549 91 76 46 0.026863 -0.982239 -0.185703 0.000000 
0.365568 0.454521 -0.509913 90 87 72 0.770441 -0.191461 0.608082 0.000000 
0.359470 0.537717 -0.753318 50 45 26 -0.949274 -0.292594 -0.115184 0.000000 
0.361774 0.637574 -1.101539 72 68 57 0.447597 0.837491 0.313474 0.000000 
0.358562 0.700424 -1.237649 85 74 50 -0.470248 0.840278 0.269814 0.000000 
0.362158 0.579244 -0.837127 76 72 54 0.631920 -0.709495 -0.311919 0.000000 
0.343396 0.720112 -1.378259 62 58 39 0.918326 0.367610 0.146764 0.000000 
0.360432 0.466896 -0.530984 97 89 76 0.092269 0.995421 0.024967 0.000000 
0.366521 0.538286 -0.724781 89 83 61 -0.218024 -0.882479 -0.416768 0.000000 
0.372846 0.620982 -1.014217 59 55 33 0.320965 -0.894222 -0.312007 0.000000 
0.370926 0.658147 -1.077337 85 76 49 0.453556 0.879754 0.142546 0.000000 
0.367577 0.695502 -1.295310 77 70 45 -0.676159 0.695073 0.244300 0.000000 
0.361551 0.682664 -1.169907 68 64 45 0.691378 -0.691378 -0.209744 0.000000 
0.364836 0.663943 -1.191034 65 56 38 0.688528 -0.700851 -0.186380 0.000000 
0.363788 0.586708 -0.913043 70 63 49 -0.546018 -0.696298 -0.465868 0.000000 
0.377581 0.621286 -0.976788 86 78 54 0.923100 0.273352 0.270490 0.000000 
0.358981 0.516036 -0.688678 60 55 41 -0.840491 -0.536151 -0.078218 0.000000 
0.357471 0.631578 -1.015531 78 72 55 0.955176 -0.277561 -0.102945 0.000000 
0.369207 0.692362 -1.192103 84 75 50 0.200240 -0.967611 -0.153733 0.000000 
0.343643 0.722564 -1.389287 66 60 38 0.928473 0.371132 -0.014126 0.000000 
0.372886 0.537284 -0.766143 83 79 60 0.888777 -0.451991 -0.076023 0.000000 
0.366989 0.669921 -1.115623 84 73 46 0.160858 -0.955844 -0.245940 0.000000 
0.358415 0.558977 -0.796618 57 54 36 0.963762 -0.254555 -0.079786 0.000000 
0.341527 0.754218 -1.445292 95 84 55 -0.756648 0.649997 0.070621 0.000000 
0.364761 0.521957 -0.729182 52 47 33 0.627039 0.755819 0.188572 0.000000 
0.381216 0.623696 -1.014690 81 77 60 0.966652 -0.245120 -0.074164 0.000000 
0.364688 0.545522 -0.794922 44 40 23 -0.859156 -0.442503 -0.256986 0.000000 
0.361574 0.499481 -0.618062 81 76 58 -0.383289 0.892368 0.238261 0.000000 
0.381148 0.620864 -0.995465 99 92 69 0.978430 0.206415 -0.008163 0.000000 
