ply
format ascii 1.0
comment Created by Open3D
obj_info Generated by CloudCompare!
element vertex 619
property float x
property float y
property float z
property uchar red
property uchar green
property uchar blue
property float nx
property float ny
property float nz
property float scalar_leaf2
end_header
0.355721 0.207859 -0.644001 120 112 86 0.670970 0.165841 -0.722700 0.000000 
0.273977 0.266731 -0.728070 144 137 122 -0.495044 0.387920 0.777463 0.000000 
0.401845 0.192794 -0.624020 80 77 60 0.820734 0.530344 0.212443 0.000000 
0.483686 0.137884 -0.550375 77 67 42 0.530452 0.181826 -0.827986 0.000000 
0.320947 0.252050 -0.708156 106 101 78 -0.633875 -0.745462 -0.206126 0.000000 
0.355666 0.230288 -0.666921 156 147 133 -0.789947 -0.595820 0.144849 0.000000 
0.252440 0.271783 -0.762333 128 114 89 0.397314 0.908347 0.130566 0.000000 
0.417311 0.173319 -0.590215 153 142 121 0.542146 -0.121289 -0.831485 0.000000 
0.640412 0.047902 -0.401016 72 67 38 0.481185 0.202367 -0.852941 0.000000 
0.477593 0.120373 -0.541876 112 105 80 -0.150949 0.985329 0.079635 0.000000 
0.210196 0.329921 -0.808001 111 102 78 -0.290230 0.675065 0.678272 0.000000 
0.228173 0.296546 -0.777268 126 111 85 0.135678 -0.972571 -0.188935 0.000000 
0.479220 0.132788 -0.551787 72 71 51 -0.628640 0.344527 0.697218 0.000000 
0.727100 -0.002115 -0.315475 76 75 56 -0.701727 -0.704682 -0.104890 0.000000 
0.798595 -0.057581 -0.239008 106 102 86 0.475881 0.097436 -0.874096 0.000000 
0.211533 0.325403 -0.823679 102 92 63 0.649443 0.445762 -0.616052 0.000000 
0.638646 0.050140 -0.410220 100 96 84 -0.426839 0.245847 0.870269 0.000000 
0.461016 0.161694 -0.566126 152 142 130 0.727137 0.525063 -0.442245 0.000000 
0.664228 0.031550 -0.362646 124 114 93 -0.544589 0.326111 0.772706 0.000000 
0.344320 0.229673 -0.661300 143 137 120 -0.188779 -0.747443 -0.636938 0.000000 
0.302942 0.249246 -0.694710 151 144 128 -0.644337 -0.064577 0.762011 0.000000 
0.327703 0.232789 -0.702078 91 83 58 0.051735 0.837544 0.543914 0.000000 
0.330064 0.224841 -0.687512 106 95 70 0.428238 0.816677 0.386847 0.000000 
0.600451 0.071584 -0.427877 124 116 95 0.094599 0.914455 0.393476 0.000000 
0.227843 0.282577 -0.774944 116 110 92 -0.682299 -0.491188 0.541481 0.000000 
0.473031 0.150470 -0.554844 147 143 129 0.479588 0.743279 -0.466403 0.000000 
0.358774 0.205417 -0.642098 141 132 105 0.754116 0.305809 -0.581197 0.000000 
0.504820 0.123590 -0.508970 106 104 90 -0.106770 -0.794197 -0.598207 0.000000 
0.240440 0.317413 -0.793379 92 87 62 0.834985 0.486174 -0.257749 0.000000 
0.307679 0.245299 -0.690839 133 126 109 0.735860 0.202942 -0.646007 0.000000 
0.592359 0.074078 -0.433468 113 108 91 -0.134989 -0.805483 -0.577040 0.000000 
0.454693 0.155594 -0.579122 87 81 58 0.799350 0.103755 -0.591840 0.000000 
0.202822 0.329281 -0.828428 97 90 66 0.778927 0.315089 -0.542210 0.000000 
0.722457 0.000044 -0.318021 78 76 56 0.484099 0.861432 0.153566 0.000000 
0.324088 0.229117 -0.686263 105 94 70 0.456445 0.853354 0.251884 0.000000 
0.692056 0.008524 -0.341729 81 73 48 -0.085996 -0.730235 -0.677763 0.000000 
0.640247 0.032740 -0.385512 98 86 59 -0.192875 -0.850742 -0.488915 0.000000 
0.618489 0.066738 -0.430669 124 132 123 0.415663 -0.227944 -0.880491 0.000000 
0.463863 0.155112 -0.565920 79 79 62 0.652271 0.537660 -0.534289 0.000000 
0.726164 -0.010592 -0.304687 128 121 103 0.453767 -0.339930 -0.823737 0.000000 
0.627715 0.059512 -0.403819 83 81 59 0.167051 0.855952 0.489327 0.000000 
0.404980 0.171542 -0.601249 133 125 107 0.932680 -0.064641 -0.354867 0.000000 
0.463677 0.155448 -0.566017 79 80 63 -0.610513 -0.576689 0.542866 0.000000 
0.662186 0.035306 -0.370997 99 94 77 -0.444301 0.762362 0.470533 0.000000 
0.559529 0.092372 -0.459337 106 100 78 0.119422 -0.591215 -0.797624 0.000000 
0.259628 0.291353 -0.760974 103 96 71 -0.370999 -0.925490 -0.076343 0.000000 
0.304090 0.247768 -0.724758 102 94 71 0.163761 -0.809792 -0.563399 0.000000 
0.352904 0.217864 -0.648750 160 156 143 0.569104 -0.495238 -0.656400 0.000000 
0.251141 0.277323 -0.779944 85 83 72 -0.121588 0.824748 0.552274 0.000000 
0.659293 0.039374 -0.389451 116 115 100 0.196075 -0.708648 -0.677770 0.000000 
0.476922 0.126519 -0.533957 113 108 88 0.671016 0.237291 -0.702446 0.000000 
0.629482 0.034754 -0.393164 100 97 79 0.332693 -0.621567 -0.709203 0.000000 
0.493550 0.133897 -0.542694 76 77 59 0.861665 -0.014880 -0.507260 0.000000 
0.400161 0.200529 -0.623101 92 89 67 -0.456534 -0.843428 -0.283206 0.000000 
0.203393 0.295531 -0.822727 94 84 57 0.509574 -0.718715 -0.473057 0.000000 
0.746049 -0.019158 -0.303201 89 92 75 0.299191 0.894596 -0.331938 0.000000 
0.221609 0.295362 -0.772567 150 146 134 -0.566800 0.778363 0.269980 0.000000 
0.833622 -0.082020 -0.209092 117 116 102 0.491827 0.868012 0.068271 0.000000 
0.194897 0.309566 -0.815255 116 103 70 0.538154 -0.432179 -0.723610 0.000000 
0.200515 0.304918 -0.809331 123 111 78 -0.159204 0.641366 0.750535 0.000000 
0.205802 0.331742 -0.813343 132 126 107 -0.306770 0.526119 0.793152 0.000000 
0.501724 0.105877 -0.519035 90 89 75 0.038305 0.696587 0.716449 0.000000 
0.575037 0.067855 -0.445881 91 86 66 -0.746410 -0.592312 -0.303379 0.000000 
0.452501 0.141757 -0.558730 90 86 67 -0.715972 -0.509984 0.476761 0.000000 
0.771169 -0.038106 -0.277234 83 84 66 -0.449455 -0.300155 0.841367 0.000000 
0.477115 0.130606 -0.532778 125 119 105 -0.596659 0.128807 0.792090 0.000000 
0.562093 0.094713 -0.463155 129 122 104 0.299476 0.790679 0.533986 0.000000 
0.456304 0.134623 -0.564997 94 93 77 -0.101395 -0.901442 -0.420858 0.000000 
0.556571 0.076227 -0.466690 85 82 67 -0.319031 0.626727 0.710938 0.000000 
0.523348 0.101577 -0.487265 132 126 108 0.577450 0.284748 -0.765161 0.000000 
0.461634 0.131556 -0.558363 96 93 75 0.375625 0.482026 0.791554 0.000000 
0.607475 0.055709 -0.411537 148 143 126 -0.602914 -0.555627 0.572515 0.000000 
0.465223 0.137667 -0.544047 130 123 105 -0.646405 0.146157 0.748865 0.000000 
0.632170 0.054264 -0.397052 110 106 90 0.031013 -0.986685 -0.159661 0.000000 
0.221865 0.334478 -0.807894 121 121 111 -0.327597 -0.873083 -0.361118 0.000000 
0.493827 0.125821 -0.537349 80 75 54 -0.387981 0.504863 0.771093 0.000000 
0.533520 0.105739 -0.483606 113 107 91 0.361289 -0.526542 -0.769561 0.000000 
0.503252 0.112573 -0.508964 107 100 75 -0.765040 -0.252919 0.592238 0.000000 
0.368058 0.193426 -0.646632 81 77 58 0.462211 0.842492 0.276708 0.000000 
0.232831 0.278412 -0.773002 141 126 101 -0.313571 -0.945960 0.082657 0.000000 
0.425469 0.173886 -0.586191 155 148 128 0.448164 -0.422278 -0.787928 0.000000 
0.279180 0.278089 -0.735762 143 132 111 -0.158692 0.772299 0.615119 0.000000 
0.347651 0.232496 -0.675151 115 108 84 -0.627537 -0.778585 -0.001373 0.000000 
0.226148 0.320348 -0.806984 107 96 62 -0.733532 -0.643203 0.219592 0.000000 
0.549847 0.077088 -0.464887 115 118 113 -0.633328 -0.542128 0.552262 0.000000 
0.315960 0.250651 -0.687890 118 107 82 -0.025810 -0.868038 -0.495827 0.000000 
0.735523 -0.009983 -0.309755 135 133 124 0.103966 -0.780479 0.616476 0.000000 
0.528420 0.112530 -0.498376 125 121 110 -0.088873 -0.756149 -0.648336 0.000000 
0.473493 0.121551 -0.539657 147 143 133 0.806862 0.561624 -0.183171 0.000000 
0.790373 -0.047638 -0.250682 108 104 83 -0.044727 -0.995992 -0.077454 0.000000 
0.702470 -0.002650 -0.334877 87 91 77 0.285683 0.541377 0.790757 0.000000 
0.298199 0.265055 -0.721560 131 120 96 -0.155423 0.632256 0.759009 0.000000 
0.366211 0.227132 -0.669486 151 142 129 0.797819 0.586850 -0.138170 0.000000 
0.391750 0.200524 -0.640567 97 98 81 0.826616 0.482844 -0.289081 0.000000 
0.261485 0.293460 -0.774145 142 136 121 -0.655354 -0.742334 -0.139469 0.000000 
0.235766 0.288985 -0.795999 97 85 58 0.383153 -0.450485 -0.806385 0.000000 
0.377665 0.215838 -0.646216 108 106 86 0.351250 0.638784 0.684528 0.000000 
0.195589 0.345953 -0.831673 130 118 87 0.840863 0.541041 0.014991 0.000000 
0.363352 0.211750 -0.637285 142 135 115 -0.361174 0.456639 0.813040 0.000000 
0.771914 -0.042493 -0.264350 156 148 128 -0.455396 -0.073362 0.887261 0.000000 
0.339604 0.232882 -0.697595 85 81 62 0.544957 -0.285905 -0.788213 0.000000 
0.760154 -0.041193 -0.274501 102 102 87 0.346055 0.906753 -0.240925 0.000000 
0.211811 0.290593 -0.783660 152 143 132 0.911608 0.014346 -0.410810 0.000000 
0.804654 -0.066067 -0.228591 94 91 78 -0.743183 -0.529908 0.408505 0.000000 
0.298632 0.248614 -0.724564 98 89 70 -0.033981 -0.876712 -0.479813 0.000000 
0.660182 0.028768 -0.380449 118 111 97 -0.079667 -0.919543 -0.384831 0.000000 
0.384281 0.192163 -0.619012 150 143 125 -0.691358 0.058931 0.720105 0.000000 
0.290574 0.260645 -0.711659 147 137 109 0.346338 -0.874237 -0.340235 0.000000 
0.671575 0.031100 -0.369367 84 82 66 -0.850864 -0.525174 0.014927 0.000000 
0.429912 0.172457 -0.581412 151 146 130 -0.395184 0.549323 0.736257 0.000000 
0.351755 0.228571 -0.685432 117 116 102 -0.862199 -0.460339 0.211426 0.000000 
0.198370 0.300965 -0.801117 150 144 127 -0.067550 0.159986 0.984805 0.000000 
0.253491 0.293229 -0.762026 96 88 63 0.172499 -0.891485 -0.418926 0.000000 
0.303744 0.266451 -0.729875 80 75 53 -0.856998 -0.474116 0.201911 0.000000 
0.372156 0.201763 -0.630094 178 170 147 0.522139 -0.274397 -0.807513 0.000000 
0.784027 -0.056650 -0.253379 98 99 82 -0.815694 -0.351400 0.459523 0.000000 
0.519408 0.119421 -0.518262 69 67 44 0.626479 0.340088 -0.701330 0.000000 
0.427169 0.161416 -0.580483 133 125 104 -0.692618 0.139726 0.707642 0.000000 
0.332576 0.219479 -0.673399 120 111 86 -0.600188 -0.789878 0.125965 0.000000 
0.331538 0.221911 -0.668105 145 138 123 0.793553 0.412130 -0.447686 0.000000 
0.224231 0.299696 -0.801700 76 63 34 0.364080 -0.476351 0.800334 0.000000 
0.509378 0.109773 -0.503774 93 89 73 0.784161 0.135405 -0.605604 0.000000 
0.661644 0.027077 -0.368831 89 79 52 0.260182 0.862708 0.433636 0.000000 
0.361787 0.223802 -0.654842 108 99 69 -0.017608 -0.862809 -0.505224 0.000000 
0.788316 -0.058103 -0.252222 86 85 66 0.581147 0.661536 -0.473961 0.000000 
0.379907 0.182799 -0.624431 122 121 109 -0.505296 -0.845141 0.174394 0.000000 
0.401312 0.194614 -0.629883 95 91 69 0.787186 0.383087 -0.483303 0.000000 
0.841437 -0.085139 -0.207617 78 72 36 0.705475 -0.329222 -0.627629 0.000000 
0.715450 -0.008610 -0.317725 95 84 52 -0.023122 -0.858222 -0.512757 0.000000 
0.271825 0.270810 -0.731869 143 131 98 0.570376 -0.386278 -0.724887 0.000000 
0.436582 0.162629 -0.574927 146 135 110 0.648032 -0.169251 -0.742569 0.000000 
0.665850 0.044389 -0.379295 127 135 126 0.381472 0.741660 0.551743 0.000000 
0.291314 0.252182 -0.734963 105 97 71 -0.105943 -0.914966 -0.389376 0.000000 
0.445055 0.156707 -0.566658 150 144 128 -0.460892 0.255711 0.849818 0.000000 
0.217242 0.296146 -0.817860 111 96 59 0.385358 -0.569018 -0.726441 0.000000 
0.712989 0.006039 -0.326085 81 78 58 0.268974 0.926464 0.263281 0.000000 
0.324998 0.223179 -0.670206 137 137 129 0.586989 0.434006 -0.683435 0.000000 
0.660438 0.021343 -0.355720 135 137 129 0.516222 -0.114234 -0.848802 0.000000 
0.568850 0.095988 -0.468629 94 90 76 0.019185 0.934942 0.354281 0.000000 
0.672507 0.021329 -0.348913 107 96 72 0.695039 -0.114111 -0.709859 0.000000 
0.587991 0.083665 -0.460701 104 114 104 0.364455 -0.480053 -0.797948 0.000000 
0.367017 0.214159 -0.665559 84 79 59 -0.707424 -0.429093 0.561632 0.000000 
0.599694 0.080998 -0.444776 72 72 52 0.414227 0.888465 0.197599 0.000000 
0.579893 0.086351 -0.442417 94 92 74 0.100633 0.935218 0.339470 0.000000 
0.220156 0.325279 -0.806587 109 101 76 0.600256 0.777431 0.187866 0.000000 
0.468640 0.130913 -0.544161 85 83 68 -0.678672 -0.373023 0.632660 0.000000 
0.296726 0.246386 -0.713628 109 93 67 -0.174075 -0.975573 -0.134000 0.000000 
0.775069 -0.044571 -0.262826 105 101 79 -0.168399 -0.874210 0.455409 0.000000 
0.579229 0.091581 -0.466236 63 62 37 -0.499448 0.004017 0.866335 0.000000 
0.676334 0.019904 -0.358388 79 71 45 0.017269 0.894028 0.447678 0.000000 
0.189004 0.315690 -0.808089 152 144 129 0.218314 0.072771 0.973162 0.000000 
0.408001 0.190759 -0.607531 104 99 82 -0.072327 -0.940253 -0.332705 0.000000 
0.747658 -0.026131 -0.294273 79 78 61 -0.101667 0.732294 0.673357 0.000000 
0.226061 0.321238 -0.789073 104 88 52 0.521507 -0.139558 -0.841756 0.000000 
0.614660 0.054214 -0.407506 150 145 130 0.257096 0.610405 -0.749205 0.000000 
0.641119 0.032720 -0.375390 130 130 117 0.532800 -0.136502 -0.835160 0.000000 
0.189435 0.329305 -0.820559 92 85 60 0.727472 -0.176125 -0.663148 0.000000 
0.285796 0.279985 -0.739851 119 111 93 -0.403077 -0.911363 -0.083348 0.000000 
0.810687 -0.058948 -0.233597 89 88 74 0.444660 0.837833 -0.316723 0.000000 
0.246929 0.302212 -0.771838 102 94 71 -0.159150 0.753311 0.638117 0.000000 
0.763978 -0.038299 -0.273509 103 96 68 0.451708 0.888128 -0.084782 0.000000 
0.214149 0.321287 -0.823063 103 93 64 0.786295 0.289521 -0.545818 0.000000 
0.578991 0.090812 -0.457650 140 130 108 0.018549 -0.955908 -0.293079 0.000000 
0.766345 -0.051307 -0.275379 99 97 90 0.704680 -0.202886 -0.679900 0.000000 
0.810393 -0.061730 -0.241196 93 96 80 -0.745769 -0.243356 0.620166 0.000000 
0.181757 0.304003 -0.835242 123 112 84 0.689441 -0.297311 -0.660513 0.000000 
0.811599 -0.064801 -0.241552 124 120 104 -0.488671 0.482045 0.727209 0.000000 
0.366780 0.193152 -0.642790 86 82 62 -0.393482 -0.918997 -0.024838 0.000000 
0.438605 0.142322 -0.576011 144 140 129 0.482386 0.869433 0.106723 0.000000 
0.347600 0.209148 -0.653690 142 132 108 0.758418 0.544047 -0.358909 0.000000 
0.430684 0.174171 -0.595619 76 73 48 -0.716572 -0.368944 0.591950 0.000000 
0.555473 0.102325 -0.479364 100 93 74 0.073985 0.966816 0.244526 0.000000 
0.329407 0.223710 -0.671783 117 110 86 -0.776580 -0.504209 0.377752 0.000000 
0.522397 0.111417 -0.494461 139 133 116 0.077026 -0.690323 -0.719389 0.000000 
0.432350 0.162985 -0.577718 155 149 133 0.465694 -0.218529 -0.857540 0.000000 
0.399098 0.185298 -0.607510 151 140 113 -0.472860 0.169405 0.864700 0.000000 
0.211967 0.282935 -0.800445 146 136 114 0.178031 0.954408 0.239606 0.000000 
0.485821 0.124425 -0.542054 73 73 54 -0.426928 0.456148 0.780808 0.000000 
0.585207 0.063446 -0.435545 115 106 85 0.577386 -0.299089 -0.759718 0.000000 
0.640751 0.036938 -0.389341 85 74 45 0.119927 -0.765461 -0.632208 0.000000 
0.396559 0.192006 -0.637583 74 71 48 -0.697724 -0.076880 0.712229 0.000000 
0.179374 0.298068 -0.841166 108 98 75 -0.125550 -0.952861 -0.276211 0.000000 
0.322998 0.231145 -0.677190 111 107 91 0.828679 0.457582 -0.322351 0.000000 
0.732267 -0.006004 -0.309521 78 77 56 0.573053 0.812189 -0.109361 0.000000 
0.542526 0.104738 -0.483865 109 102 86 0.201440 0.828481 0.522534 0.000000 
0.741344 -0.022974 -0.303381 86 89 74 0.023228 0.964560 0.262840 0.000000 
0.498702 0.125273 -0.535023 66 65 43 -0.306438 0.742832 0.595228 0.000000 
0.803550 -0.059852 -0.235556 155 154 145 -0.374785 0.304987 0.875511 0.000000 
0.522824 0.120357 -0.503091 103 98 81 0.056593 -0.930486 -0.361929 0.000000 
0.560451 0.084487 -0.455406 130 120 98 -0.720848 0.018196 0.692854 0.000000 
0.655023 0.043760 -0.391449 74 74 57 -0.573421 -0.712231 0.404865 0.000000 
0.751595 -0.033629 -0.283145 109 101 70 -0.224214 -0.883491 -0.411306 0.000000 
0.658566 0.036726 -0.387468 81 82 71 0.543089 -0.292920 -0.786925 0.000000 
0.747411 -0.021349 -0.302799 92 91 80 0.328228 -0.779741 -0.533170 0.000000 
0.187444 0.307494 -0.843468 109 97 68 -0.660304 0.392211 0.640445 0.000000 
0.299133 0.246091 -0.719739 88 83 61 -0.227867 -0.971820 -0.060354 0.000000 
0.475683 0.147861 -0.539983 108 106 87 -0.062285 0.873372 0.483054 0.000000 
0.827253 -0.074852 -0.224408 108 105 96 -0.447176 0.463556 0.764950 0.000000 
0.284849 0.252613 -0.715833 143 129 107 0.705475 0.627629 -0.329222 0.000000 
0.672376 0.020439 -0.358624 82 76 52 -0.247086 -0.967235 0.058357 0.000000 
0.635864 0.042056 -0.384961 139 136 121 0.484165 -0.353137 -0.800549 0.000000 
0.538418 0.083067 -0.480313 97 98 87 0.297650 0.345513 0.889958 0.000000 
0.557228 0.075770 -0.463070 137 127 112 -0.664772 -0.261784 0.699677 0.000000 
0.594375 0.067895 -0.422838 117 112 100 0.456495 -0.214029 -0.863599 0.000000 
0.317697 0.251992 -0.702935 95 87 57 -0.430780 -0.850751 -0.301083 0.000000 
0.269941 0.267287 -0.728962 148 143 130 -0.711499 0.272184 0.647831 0.000000 
0.615486 0.065379 -0.431135 96 90 76 -0.439626 0.216087 0.871800 0.000000 
0.496450 0.130557 -0.538524 65 64 40 -0.562067 0.115333 0.819011 0.000000 
0.276767 0.281120 -0.734706 143 136 117 0.204133 -0.787370 -0.581702 0.000000 
0.667762 0.018390 -0.351821 116 108 83 -0.136408 0.750995 0.646065 0.000000 
0.631158 0.059217 -0.419180 111 111 102 -0.822485 -0.369247 0.432637 0.000000 
0.632292 0.051365 -0.392683 132 122 101 -0.500682 0.598459 0.625431 0.000000 
0.814869 -0.062020 -0.227194 92 92 78 0.126500 -0.850604 -0.510363 0.000000 
0.221572 0.289476 -0.778858 139 132 113 -0.675735 -0.012539 0.737038 0.000000 
0.364742 0.207307 -0.665568 80 75 53 0.123764 -0.735128 -0.666536 0.000000 
0.253595 0.296037 -0.784586 82 76 55 0.808064 0.395231 -0.436835 0.000000 
0.272811 0.280326 -0.765156 78 72 52 0.908690 0.336930 -0.246498 0.000000 
0.604906 0.074743 -0.445152 123 132 122 -0.656920 -0.079758 0.749730 0.000000 
0.810417 -0.067750 -0.230173 107 97 67 0.370156 0.926058 -0.073497 0.000000 
0.313731 0.236212 -0.690540 114 108 86 0.824294 0.534962 -0.185353 0.000000 
0.468907 0.129884 -0.544705 87 85 71 0.701856 0.404600 -0.586257 0.000000 
0.298074 0.253895 -0.732840 91 83 58 -0.358539 0.708893 0.607388 0.000000 
0.337769 0.238066 -0.671312 93 90 72 0.120634 0.916541 0.381314 0.000000 
0.208332 0.320642 -0.809555 77 68 41 0.619093 0.354468 -0.700768 0.000000 
0.527283 0.111601 -0.510895 68 64 41 0.479953 -0.219537 -0.849381 0.000000 
0.697836 0.010891 -0.346994 83 83 73 0.364860 -0.393047 -0.844033 0.000000 
0.228360 0.314879 -0.814934 128 121 109 -0.829733 -0.090595 0.550759 0.000000 
0.343823 0.209771 -0.648288 138 139 133 0.714418 0.684210 0.146508 0.000000 
0.342013 0.217576 -0.655718 151 148 141 -0.765878 -0.067535 0.639429 0.000000 
0.456635 0.148822 -0.571841 71 69 48 -0.760357 -0.172185 0.626266 0.000000 
0.334420 0.223494 -0.665217 127 119 92 0.696704 -0.035330 -0.716488 0.000000 
0.467094 0.138780 -0.564770 99 95 83 -0.521280 0.149148 0.840251 0.000000 
0.502492 0.119612 -0.510786 151 147 134 -0.419077 0.278877 0.864061 0.000000 
0.218848 0.289679 -0.780131 150 138 107 0.738930 0.457905 -0.494273 0.000000 
0.602304 0.063519 -0.415959 115 111 96 0.373904 -0.637449 -0.673687 0.000000 
0.636973 0.050995 -0.394149 120 117 102 -0.267431 -0.602906 -0.751655 0.000000 
0.512428 0.112306 -0.515554 84 75 51 0.349290 -0.579984 -0.735945 0.000000 
0.295882 0.249369 -0.702768 145 134 111 -0.694041 -0.405823 0.594655 0.000000 
0.782685 -0.049415 -0.254303 115 110 90 0.616769 0.250809 -0.746117 0.000000 
0.501456 0.127467 -0.537459 107 107 96 0.759792 -0.542709 -0.358026 0.000000 
0.462778 0.137868 -0.547420 154 148 132 0.696771 -0.032507 -0.716557 0.000000 
0.251591 0.297051 -0.766216 122 110 82 0.044105 0.956442 0.288571 0.000000 
0.653803 0.042904 -0.395313 82 78 58 -0.589149 -0.646218 0.485083 0.000000 
0.504933 0.102363 -0.515480 88 88 75 0.471618 -0.232018 -0.850732 0.000000 
0.179685 0.301738 -0.847116 113 104 83 -0.084871 -0.818500 -0.568203 0.000000 
0.641720 0.044037 -0.404298 94 91 77 0.332868 -0.628390 -0.703082 0.000000 
0.433597 0.178972 -0.588328 150 141 131 0.573393 0.789767 -0.217920 0.000000 
0.454306 0.162263 -0.571849 89 86 66 -0.884864 -0.454390 0.102695 0.000000 
0.233303 0.303895 -0.808101 101 88 53 0.614252 -0.082382 -0.784798 0.000000 
0.585128 0.080490 -0.440685 122 115 95 0.105973 0.953755 0.281286 0.000000 
0.480370 0.121633 -0.537594 82 81 68 0.514483 0.811601 -0.276789 0.000000 
0.654917 0.034140 -0.388743 87 89 76 0.602356 0.797029 0.043731 0.000000 
0.195744 0.293420 -0.812744 135 124 97 0.620679 0.714672 -0.322494 0.000000 
0.381761 0.183760 -0.622572 140 135 118 0.558897 0.732630 -0.388442 0.000000 
0.419345 0.164993 -0.590207 138 128 100 -0.707607 -0.233777 0.666814 0.000000 
0.417814 0.186762 -0.605539 119 118 108 0.761472 0.641624 -0.092078 0.000000 
0.451438 0.137892 -0.567858 92 96 78 0.473640 0.855560 0.209003 0.000000 
0.407427 0.176245 -0.623187 75 74 57 -0.244125 0.656776 0.713476 0.000000 
0.578332 0.078032 -0.438584 113 111 96 0.496237 -0.190399 -0.847052 0.000000 
0.275249 0.273651 -0.730893 151 138 106 0.328027 -0.486494 -0.809767 0.000000 
0.294642 0.259710 -0.709748 146 133 106 0.001326 0.876523 0.481358 0.000000 
0.482886 0.142424 -0.548574 80 75 51 0.660886 0.614274 -0.431157 0.000000 
0.266632 0.267340 -0.763735 93 84 58 -0.006749 -0.854361 -0.519635 0.000000 
0.582167 0.066747 -0.446151 84 84 67 0.419833 -0.521911 -0.742529 0.000000 
0.644730 0.040393 -0.378622 147 144 133 0.451261 -0.313853 -0.835380 0.000000 
0.486155 0.141755 -0.546321 143 142 135 -0.500585 -0.767999 0.399490 0.000000 
0.509011 0.107051 -0.505645 101 97 80 0.793944 0.296342 -0.530881 0.000000 
0.681392 0.017131 -0.351821 88 76 46 -0.570633 -0.818239 -0.069728 0.000000 
0.555787 0.079669 -0.462043 110 105 89 0.537959 0.504441 -0.675381 0.000000 
0.551545 0.088937 -0.464263 143 139 121 -0.634859 -0.046869 0.771205 0.000000 
0.437149 0.156926 -0.573100 108 103 83 0.636591 -0.219460 -0.739317 0.000000 
0.294075 0.248515 -0.703638 151 146 135 0.747382 0.428718 -0.507563 0.000000 
0.656851 0.043876 -0.390690 94 95 74 -0.668566 -0.671803 0.318904 0.000000 
0.277938 0.283228 -0.750274 118 110 95 -0.557256 -0.791397 0.251311 0.000000 
0.601466 0.071389 -0.441371 87 87 74 0.126785 -0.678670 -0.723417 0.000000 
0.775884 -0.044476 -0.265248 98 88 56 0.049593 -0.995158 0.084858 0.000000 
0.207140 0.314999 -0.832016 96 89 64 0.817435 -0.032029 -0.575129 0.000000 
0.256262 0.293105 -0.783256 80 74 54 0.775502 -0.012486 -0.631222 0.000000 
0.280892 0.256476 -0.720651 117 109 83 0.816926 0.396519 -0.418814 0.000000 
0.688179 0.021098 -0.361470 97 94 80 -0.795334 0.109853 0.596134 0.000000 
0.206683 0.308033 -0.830158 90 80 51 -0.412627 0.484388 0.771432 0.000000 
0.193423 0.301151 -0.808115 163 152 121 0.564345 0.825025 -0.029119 0.000000 
0.806398 -0.062822 -0.231163 116 111 97 0.891125 0.159798 -0.424688 0.000000 
0.616594 0.063774 -0.427726 63 63 41 -0.279150 0.054314 0.958710 0.000000 
0.353994 0.220995 -0.682400 95 95 84 0.498743 -0.388272 -0.774920 0.000000 
0.779891 -0.040556 -0.267828 111 107 88 -0.877339 -0.033900 0.478672 0.000000 
0.473466 0.143585 -0.546299 118 112 93 0.026632 -0.654592 -0.755513 0.000000 
0.476684 0.121471 -0.544409 90 89 76 0.745272 0.518236 0.419524 0.000000 
0.816379 -0.070412 -0.230647 94 90 74 0.233055 0.608446 0.758603 0.000000 
0.456718 0.140163 -0.572422 87 85 71 0.431757 -0.457825 -0.777163 0.000000 
0.364676 0.218569 -0.665471 96 90 70 0.786743 0.514347 -0.341296 0.000000 
0.469983 0.126892 -0.547504 82 80 64 0.487558 0.859449 -0.153735 0.000000 
0.640036 0.042633 -0.396341 87 80 58 0.098604 0.719663 0.687286 0.000000 
0.719964 0.002191 -0.327264 95 96 85 0.947804 0.132345 -0.290090 0.000000 
0.420002 0.184659 -0.590410 111 107 87 -0.114087 -0.718599 -0.686003 0.000000 
0.367524 0.215338 -0.640701 140 133 116 0.303116 0.818257 0.488442 0.000000 
0.421261 0.184012 -0.598094 107 100 82 0.277999 0.958397 0.064739 0.000000 
0.191389 0.336213 -0.839891 99 88 55 0.465946 0.124730 -0.875978 0.000000 
0.435969 0.157548 -0.574668 149 140 114 -0.621529 0.181725 0.762022 0.000000 
0.586214 0.080899 -0.455300 68 66 46 0.113207 -0.795386 -0.595437 0.000000 
0.473757 0.152269 -0.552430 126 118 100 0.578652 0.813509 -0.058007 0.000000 
0.717837 0.003841 -0.322652 87 84 64 0.474112 0.842355 0.256235 0.000000 
0.184522 0.304365 -0.846146 106 100 80 -0.624523 0.254552 0.738360 0.000000 
0.493660 0.125465 -0.538268 92 84 57 0.427813 -0.463600 -0.775920 0.000000 
0.324224 0.245289 -0.684815 112 105 87 0.291573 0.889672 0.351383 0.000000 
0.724380 -0.000711 -0.318659 77 77 57 0.656641 0.753081 -0.041129 0.000000 
0.824396 -0.078517 -0.208465 121 125 112 0.775179 0.516247 -0.364124 0.000000 
0.329075 0.221978 -0.675358 124 115 92 -0.687043 -0.702413 0.185978 0.000000 
0.307260 0.240743 -0.698277 96 92 75 -0.594918 -0.803757 0.006870 0.000000 
0.241527 0.315206 -0.786867 122 106 75 0.440259 0.897706 0.017187 0.000000 
0.766332 -0.031450 -0.274458 85 84 67 -0.749711 -0.656543 0.082978 0.000000 
0.782209 -0.038186 -0.266097 111 115 100 0.488649 0.751894 0.442581 0.000000 
0.572237 0.068834 -0.448730 95 91 74 0.623799 0.701978 -0.343660 0.000000 
0.363420 0.193305 -0.640025 117 116 105 0.397797 0.898297 -0.186603 0.000000 
0.828736 -0.079144 -0.221854 110 106 92 0.242751 -0.772106 -0.587302 0.000000 
0.566667 0.090365 -0.471691 78 69 47 0.322423 -0.685350 -0.652946 0.000000 
0.407116 0.177603 -0.623162 80 74 50 0.323105 -0.686801 -0.651081 0.000000 
0.833604 -0.083818 -0.212813 103 96 66 0.896678 0.399654 -0.190381 0.000000 
0.305353 0.259362 -0.715090 120 109 88 0.424075 -0.778284 -0.463071 0.000000 
0.648698 0.046716 -0.390939 102 99 81 -0.675172 -0.726072 0.130244 0.000000 
0.250784 0.276884 -0.779553 96 84 57 0.031258 -0.873858 -0.485175 0.000000 
0.218053 0.293989 -0.781950 159 152 140 -0.720275 0.220301 0.657778 0.000000 
0.489346 0.142959 -0.540118 99 94 77 0.586827 0.738787 -0.331403 0.000000 
0.767596 -0.044253 -0.267029 123 118 96 0.870357 0.109685 -0.480050 0.000000 
0.390152 0.197163 -0.617450 150 147 139 0.197759 -0.581013 -0.789503 0.000000 
0.373319 0.211689 -0.666889 71 71 50 0.026821 -0.938745 -0.343568 0.000000 
0.524296 0.111736 -0.495291 111 105 89 -0.179053 -0.659590 -0.729987 0.000000 
0.637039 0.045396 -0.406858 83 86 73 0.004005 -0.871747 -0.489940 0.000000 
0.750887 -0.020218 -0.292807 83 82 61 -0.957826 -0.224511 0.179343 0.000000 
0.730948 -0.005367 -0.312339 76 76 56 -0.556422 -0.825238 -0.096832 0.000000 
0.614508 0.064227 -0.414670 93 87 62 0.119949 0.893267 0.433228 0.000000 
0.673089 0.027287 -0.357084 136 133 120 0.084412 -0.834108 -0.545103 0.000000 
0.446418 0.149747 -0.583066 77 72 49 -0.476914 0.316368 0.820039 0.000000 
0.473835 0.133941 -0.535376 137 132 118 0.461814 -0.279560 -0.841768 0.000000 
0.546858 0.100517 -0.475359 138 132 113 -0.057027 0.956789 0.285136 0.000000 
0.408151 0.187645 -0.619417 81 77 59 -0.710769 -0.646880 0.276322 0.000000 
0.717501 0.004517 -0.317649 85 83 62 -0.423090 0.812652 0.400738 0.000000 
0.218853 0.293341 -0.778945 151 145 131 0.452388 -0.096640 -0.886569 0.000000 
0.559914 0.091652 -0.475285 74 70 50 0.216526 -0.708772 -0.671386 0.000000 
0.272546 0.280341 -0.769606 115 109 98 0.854037 0.104781 -0.509551 0.000000 
0.623555 0.065161 -0.415108 99 99 85 -0.028649 -0.863573 -0.503410 0.000000 
0.215803 0.300379 -0.802246 78 64 35 0.137183 0.870752 0.472199 0.000000 
0.735166 -0.014280 -0.312408 88 90 74 -0.493972 0.237045 0.836541 0.000000 
0.431631 0.154172 -0.592593 86 83 68 0.036497 -0.888082 -0.458234 0.000000 
0.324218 0.249809 -0.700925 128 118 94 0.424618 0.880306 0.211569 0.000000 
0.389281 0.187675 -0.640074 78 76 58 0.021039 -0.699902 -0.713929 0.000000 
0.532669 0.111545 -0.493513 142 131 106 0.029916 0.975269 0.218987 0.000000 
0.410683 0.185667 -0.616740 78 74 55 0.803355 0.558523 -0.206577 0.000000 
0.250520 0.277467 -0.750917 123 118 99 -0.676396 -0.586210 0.445921 0.000000 
0.188310 0.295771 -0.814277 152 141 114 -0.583506 -0.724070 0.367756 0.000000 
0.205113 0.319492 -0.812706 78 69 40 0.489031 -0.009379 -0.872216 0.000000 
0.297098 0.262423 -0.740635 110 105 91 0.614229 -0.347031 -0.708726 0.000000 
0.337815 0.215752 -0.669415 105 97 73 0.722184 0.691689 0.004158 0.000000 
0.582658 0.080717 -0.456311 68 65 43 0.052052 -0.820165 -0.569754 0.000000 
0.460232 0.135894 -0.566484 79 80 66 0.149583 -0.827892 -0.540573 0.000000 
0.314526 0.248683 -0.687225 150 141 116 -0.487967 0.335378 0.805860 0.000000 
0.571731 0.076419 -0.456087 80 75 55 0.562277 -0.462168 -0.685744 0.000000 
0.344223 0.221092 -0.655262 148 141 120 0.613963 -0.195422 -0.764761 0.000000 
0.646383 0.034614 -0.382901 89 79 51 0.287877 -0.956656 -0.043999 0.000000 
0.536720 0.089004 -0.482035 96 93 77 0.526119 0.793152 -0.306770 0.000000 
0.221120 0.310625 -0.817947 90 83 61 -0.626773 0.052586 0.777426 0.000000 
0.467831 0.154424 -0.558219 126 122 104 0.664923 0.477337 0.574480 0.000000 
0.501612 0.114568 -0.508583 152 149 136 0.721242 0.166206 -0.672448 0.000000 
0.324587 0.228746 -0.689848 109 99 74 0.432795 0.857944 0.276805 0.000000 
0.744028 -0.012662 -0.299982 136 134 121 0.830983 0.556256 -0.006800 0.000000 
0.530796 0.110360 -0.512411 90 90 69 -0.526023 0.345856 0.776970 0.000000 
0.736583 -0.019985 -0.302877 86 83 65 0.230670 0.863882 0.447771 0.000000 
0.287103 0.274845 -0.749043 109 105 89 0.613570 0.401880 -0.679723 0.000000 
0.637829 0.050595 -0.409007 71 71 57 -0.740748 -0.399117 0.540368 0.000000 
0.370748 0.191869 -0.639957 89 85 64 -0.562931 -0.807421 -0.176576 0.000000 
0.649502 0.026836 -0.368240 115 107 84 0.437109 -0.706355 -0.556774 0.000000 
0.626796 0.040288 -0.397586 146 142 131 0.620875 -0.720860 -0.308018 0.000000 
0.233473 0.282008 -0.791168 102 86 61 0.133876 -0.876671 -0.462088 0.000000 
0.230589 0.280189 -0.773821 116 111 95 0.567075 0.821623 -0.057980 0.000000 
0.507968 0.124658 -0.519468 140 137 124 0.015359 -0.679996 -0.733055 0.000000 
0.453510 0.145661 -0.554398 141 135 119 0.733048 -0.213222 -0.645892 0.000000 
0.552545 0.105162 -0.490444 96 105 94 -0.635932 -0.478207 0.605729 0.000000 
0.641207 0.047387 -0.403361 95 93 76 -0.045746 -0.255930 -0.965612 0.000000 
0.327224 0.232736 -0.673281 157 154 143 0.699762 -0.183015 -0.690535 0.000000 
0.234458 0.281433 -0.766743 137 125 94 -0.884868 -0.351234 0.306011 0.000000 
0.661073 0.038231 -0.375833 106 103 90 -0.296500 -0.948002 -0.115675 0.000000 
0.696802 0.016060 -0.345207 93 90 69 -0.518595 -0.739204 0.429693 0.000000 
0.205179 0.332214 -0.811004 117 109 83 -0.402205 0.434253 0.806012 0.000000 
0.640094 0.030862 -0.381311 147 144 130 0.740708 -0.530485 -0.412234 0.000000 
0.370030 0.216520 -0.647803 99 92 67 0.406879 0.799284 0.442260 0.000000 
0.263293 0.288545 -0.752717 124 115 97 -0.294347 0.657856 0.693242 0.000000 
0.388292 0.180817 -0.609477 130 132 126 -0.939180 -0.177906 0.293752 0.000000 
0.329061 0.229700 -0.692513 87 80 58 0.273223 0.899421 0.341160 0.000000 
0.193367 0.307147 -0.812663 114 105 78 0.496368 -0.513080 -0.700263 0.000000 
0.418103 0.161663 -0.602719 88 84 66 0.209344 0.752088 0.624931 0.000000 
0.330280 0.239586 -0.672900 141 134 114 -0.076876 0.715095 0.694788 0.000000 
0.236738 0.316867 -0.791071 104 98 74 -0.298530 -0.826818 -0.476710 0.000000 
0.304463 0.256556 -0.701083 144 134 115 0.192296 0.974046 0.119399 0.000000 
0.631951 0.056657 -0.415540 71 71 57 0.699008 -0.079928 -0.710633 0.000000 
0.425802 0.170523 -0.584641 153 148 129 -0.549930 0.220280 0.805639 0.000000 
0.213554 0.299312 -0.789663 132 120 94 0.208529 -0.923484 -0.322014 0.000000 
0.517518 0.099644 -0.506378 84 84 69 -0.461153 0.819299 0.340714 0.000000 
0.380978 0.196857 -0.622524 150 139 111 -0.640651 0.233391 0.731502 0.000000 
0.816905 -0.066086 -0.229406 110 104 86 0.938103 -0.298926 0.174947 0.000000 
0.338341 0.215818 -0.671266 97 91 69 0.553935 0.805583 0.210219 0.000000 
0.357583 0.208885 -0.642003 143 134 107 0.661268 0.082840 -0.745562 0.000000 
0.399656 0.195169 -0.632866 92 89 67 0.802219 0.500394 -0.325653 0.000000 
0.435862 0.163672 -0.573066 142 135 114 0.559838 -0.247950 -0.790634 0.000000 
0.600879 0.078052 -0.444478 65 64 42 -0.928841 -0.328237 0.171801 0.000000 
0.439310 0.161604 -0.573176 152 147 127 0.474302 -0.228817 -0.850106 0.000000 
0.465594 0.129363 -0.557613 97 94 76 0.202997 -0.732958 -0.649280 0.000000 
0.643577 0.033441 -0.379612 111 99 72 0.709170 -0.703463 -0.047088 0.000000 
0.607236 0.064535 -0.416309 136 128 105 0.039641 -0.485261 -0.873470 0.000000 
0.311259 0.244741 -0.688793 171 164 143 0.523205 0.014949 -0.852076 0.000000 
0.555909 0.101086 -0.479630 134 129 114 -0.064267 -0.993320 -0.095837 0.000000 
0.345185 0.233231 -0.684735 86 82 62 0.556521 0.822366 -0.118316 0.000000 
0.407579 0.192245 -0.616489 94 89 66 0.699506 0.644580 -0.308558 0.000000 
0.353713 0.237831 -0.687140 142 134 117 -0.638360 -0.743465 0.199391 0.000000 
0.473779 0.130370 -0.554225 86 80 55 0.330125 -0.430258 -0.840176 0.000000 
0.698298 -0.001644 -0.327721 92 86 62 -0.176544 0.853049 0.491060 0.000000 
0.523308 0.095815 -0.492111 123 114 90 -0.605870 -0.376001 0.701102 0.000000 
0.580452 0.083812 -0.460064 69 67 46 -0.041184 0.674572 0.737059 0.000000 
0.698160 0.016717 -0.351539 125 130 120 0.857323 -0.132007 -0.497566 0.000000 
0.669101 0.023751 -0.355927 136 125 103 -0.345550 0.318389 0.882737 0.000000 
0.640198 0.048942 -0.398411 94 86 70 -0.741215 0.226266 -0.631984 0.000000 
0.390484 0.178610 -0.608898 130 132 126 -0.581314 -0.759690 0.291453 0.000000 
0.689498 0.015904 -0.354029 87 86 69 0.331862 -0.730096 -0.597351 0.000000 
0.241535 0.293010 -0.775536 73 57 29 -0.521387 0.711284 0.471413 0.000000 
0.611853 0.068063 -0.425074 100 96 80 -0.026552 0.984737 0.172012 0.000000 
0.617111 0.040838 -0.400564 102 103 92 -0.001352 -0.836802 -0.547504 0.000000 
0.674176 0.033549 -0.361180 122 122 109 -0.415770 -0.904749 0.092547 0.000000 
0.458657 0.131993 -0.553636 148 145 137 0.928441 0.316035 -0.195240 0.000000 
0.551553 0.101917 -0.480630 132 128 115 0.150172 -0.955520 -0.253831 0.000000 
0.646869 0.052215 -0.401679 128 137 128 -0.975079 -0.032383 0.219483 0.000000 
0.512902 0.094811 -0.505064 91 92 81 0.420751 -0.724352 -0.546152 0.000000 
0.787053 -0.051097 -0.251217 124 119 101 0.596841 -0.138419 -0.790330 0.000000 
0.518454 0.104051 -0.495609 96 93 78 0.700320 0.344446 -0.625227 0.000000 
0.442714 0.149128 -0.588154 93 90 79 -0.518931 0.482222 0.705813 0.000000 
0.737323 -0.009797 -0.313203 115 113 94 0.527399 -0.415676 -0.740988 0.000000 
0.797524 -0.054138 -0.244460 151 143 133 0.012175 -0.853586 -0.520809 0.000000 
0.364403 0.194771 -0.643087 121 113 88 -0.689308 -0.713232 -0.127096 0.000000 
0.501247 0.133530 -0.525658 134 132 116 0.558484 -0.665820 -0.494753 0.000000 
0.379966 0.184649 -0.628914 118 110 85 -0.564468 -0.813367 -0.140747 0.000000 
0.457048 0.148235 -0.555495 160 155 137 -0.321942 0.536570 0.780029 0.000000 
0.232780 0.298904 -0.806587 83 78 58 0.558811 -0.315432 -0.766964 0.000000 
0.559801 0.101596 -0.482010 68 67 44 0.507051 0.648554 -0.567695 0.000000 
0.562711 0.098145 -0.478791 109 104 90 -0.694716 -0.186387 0.694716 0.000000 
0.280797 0.259689 -0.719710 139 128 95 -0.801983 -0.020777 0.596986 0.000000 
0.529340 0.106967 -0.504311 83 75 55 0.388613 -0.835440 -0.388613 0.000000 
0.716744 0.005361 -0.325805 76 75 54 -0.477663 -0.810916 -0.338014 0.000000 
0.652338 0.044950 -0.382810 93 86 61 -0.248750 -0.934569 -0.254371 0.000000 
0.383619 0.206904 -0.628112 150 143 126 0.169274 0.911805 0.374110 0.000000 
0.500097 0.108234 -0.519870 89 90 77 0.485823 -0.579961 -0.653928 0.000000 
0.514994 0.124825 -0.520580 125 120 103 -0.678909 -0.726240 -0.107975 0.000000 
0.250174 0.274361 -0.757785 102 97 78 0.579984 0.735945 -0.349290 0.000000 
0.275289 0.271414 -0.729778 146 134 101 -0.327124 0.469352 0.820182 0.000000 
0.525400 0.094417 -0.491681 125 116 92 0.516450 0.647665 -0.560188 0.000000 
0.436559 0.152821 -0.571747 133 125 104 0.735225 0.098323 -0.670654 0.000000 
0.749749 -0.028896 -0.290806 82 81 63 -0.119997 -0.774793 -0.620723 0.000000 
0.297328 0.247138 -0.702574 122 113 88 0.805942 0.308760 -0.505099 0.000000 
0.590827 0.083128 -0.458266 96 96 86 -0.560964 0.265554 0.784092 0.000000 
0.220688 0.297716 -0.814789 96 86 60 0.572588 -0.385553 -0.723528 0.000000 
0.191924 0.326791 -0.842788 100 93 72 0.424688 0.159798 -0.891125 0.000000 
0.410709 0.185978 -0.599276 136 128 110 -0.126409 0.623124 0.771840 0.000000 
0.611118 0.055741 -0.413030 121 110 87 0.566650 0.676971 -0.469701 0.000000 
0.407372 0.185474 -0.625247 77 76 62 0.784508 0.129021 -0.606548 0.000000 
0.569066 0.089484 -0.456729 112 107 90 -0.087347 0.950390 0.298545 0.000000 
0.277233 0.259815 -0.724780 114 108 87 0.736711 0.416975 -0.532343 0.000000 
0.451726 0.145878 -0.583315 106 103 94 -0.592353 0.201554 0.780060 0.000000 
0.223257 0.282805 -0.780447 138 127 97 -0.682323 -0.682323 0.262432 0.000000 
0.260190 0.269823 -0.765318 89 83 63 -0.323639 -0.893362 -0.311707 0.000000 
0.211853 0.331701 -0.820584 133 129 119 -0.745886 -0.462680 0.479146 0.000000 
0.459249 0.156048 -0.560625 151 145 126 -0.023286 -0.842416 -0.538324 0.000000 
0.429711 0.162378 -0.579507 151 142 117 0.584067 -0.100500 -0.805459 0.000000 
0.465479 0.154824 -0.559426 101 96 77 0.514490 0.635944 0.575217 0.000000 
0.475986 0.125082 -0.535511 109 103 78 -0.719665 -0.378685 0.581962 0.000000 
0.338875 0.241462 -0.692141 152 145 129 -0.686940 -0.721943 0.083133 0.000000 
0.199207 0.329417 -0.833782 94 88 64 -0.853351 -0.413511 0.317490 0.000000 
0.221632 0.282496 -0.791298 130 114 88 0.173351 0.969484 0.173351 0.000000 
0.385662 0.192828 -0.616894 152 149 139 0.541904 -0.216455 -0.812088 0.000000 
0.256175 0.298439 -0.776187 122 113 89 0.766383 0.624851 0.149061 0.000000 
0.645149 0.047973 -0.400401 91 89 74 -0.823852 -0.057938 0.563837 0.000000 
0.645621 0.045557 -0.391257 89 83 66 -0.849805 0.453332 -0.268926 0.000000 
0.424661 0.159262 -0.584105 134 124 95 0.722340 0.139662 -0.677288 0.000000 
0.548331 0.101231 -0.478365 133 130 116 -0.076441 0.979176 0.188070 0.000000 
0.827816 -0.077053 -0.215175 125 120 106 0.368035 0.929705 0.014106 0.000000 
0.237371 0.314291 -0.802602 115 111 95 -0.832549 -0.423357 0.357256 0.000000 
0.206225 0.311755 -0.808811 86 73 45 0.440563 -0.367401 -0.819098 0.000000 
0.495338 0.108861 -0.521658 100 102 91 0.629583 0.192415 -0.752729 0.000000 
0.275418 0.262342 -0.740141 108 94 67 0.446568 0.798019 0.404652 0.000000 
0.752303 -0.025158 -0.295149 98 95 83 -0.031999 -0.580151 -0.813880 0.000000 
0.503396 0.135108 -0.526004 111 108 93 0.033869 -0.881959 -0.470107 0.000000 
0.723870 -0.016223 -0.306302 97 94 72 0.065541 0.863183 0.500618 0.000000 
0.193847 0.317436 -0.815023 88 78 51 -0.654638 -0.023830 0.755567 0.000000 
0.763238 -0.030040 -0.285109 87 89 73 0.836800 0.290318 -0.464199 0.000000 
0.484859 0.143290 -0.536032 107 103 86 0.834883 -0.330507 0.440154 0.000000 
0.193959 0.342190 -0.826428 170 160 136 -0.156353 0.711939 0.684615 0.000000 
0.599391 0.069082 -0.423331 136 131 118 -0.429892 0.708740 0.559357 0.000000 
0.334208 0.231394 -0.705389 114 110 94 0.283580 -0.655278 -0.700138 0.000000 
0.727963 -0.019792 -0.302166 154 154 149 0.293006 -0.487299 -0.822610 0.000000 
0.326687 0.244056 -0.683624 94 83 54 0.313504 0.920472 0.233339 0.000000 
0.192369 0.300934 -0.809055 143 132 103 -0.855514 0.406872 0.320237 0.000000 
0.618429 0.063070 -0.430163 114 123 114 0.278557 0.450923 0.847982 0.000000 
0.435496 0.162568 -0.575034 155 149 132 0.633186 -0.136217 -0.761919 0.000000 
0.670010 0.040299 -0.378456 135 141 133 0.665502 0.731901 0.146380 0.000000 
0.529279 0.119634 -0.507650 152 142 128 -0.585403 -0.787161 0.194115 0.000000 
0.217712 0.319990 -0.799930 124 113 84 -0.751723 0.323547 0.574657 0.000000 
0.338187 0.234908 -0.674638 104 97 76 0.138800 0.987927 0.068817 0.000000 
0.198155 0.308319 -0.835951 91 80 47 0.526749 -0.349555 -0.774820 0.000000 
0.326678 0.243840 -0.685898 81 72 47 0.412410 0.885425 0.214335 0.000000 
0.258458 0.293481 -0.777764 91 86 67 0.817129 0.571848 -0.072729 0.000000 
0.541910 0.098462 -0.471602 102 99 83 -0.393803 0.591528 0.703572 0.000000 
0.446359 0.147002 -0.581649 76 75 57 0.294587 -0.472275 -0.830768 0.000000 
0.326855 0.247337 -0.710688 121 120 114 -0.703519 -0.383887 0.598073 0.000000 
0.681402 0.016085 -0.353103 76 73 51 0.169550 0.859546 0.482113 0.000000 
0.396406 0.183810 -0.634694 77 76 60 -0.354468 0.700768 0.619093 0.000000 
0.243266 0.275847 -0.786194 84 79 66 -0.266783 0.875712 0.402436 0.000000 
0.337921 0.230982 -0.697296 74 71 56 -0.295021 0.469848 0.831989 0.000000 
0.728247 -0.020086 -0.294815 127 128 119 0.098566 0.852813 0.512830 0.000000 
0.662873 0.017195 -0.359366 152 152 146 0.011755 -0.907782 -0.419278 0.000000 
0.455578 0.161397 -0.566243 147 142 130 0.444045 0.503471 0.741175 0.000000 
0.238352 0.307767 -0.805510 124 118 107 0.753893 0.132864 -0.643422 0.000000 
0.456304 0.134623 -0.564997 94 93 77 0.101395 0.901442 0.420858 0.000000 
0.198264 0.350132 -0.831775 154 145 128 0.041207 0.405423 0.913200 0.000000 
0.657003 0.039714 -0.392201 129 135 126 0.951984 0.028848 -0.304785 0.000000 
0.289688 0.248261 -0.709468 132 125 109 0.627870 0.647856 -0.431349 0.000000 
0.708677 -0.000803 -0.328467 76 73 51 0.092401 0.693740 0.714274 0.000000 
0.576688 0.092510 -0.464511 111 111 100 -0.312610 -0.857753 -0.408087 0.000000 
0.453091 0.143405 -0.576155 77 77 61 -0.392095 0.630329 0.670035 0.000000 
0.638177 0.044844 -0.397677 80 72 47 0.273977 -0.433160 -0.858667 0.000000 
0.217979 0.327116 -0.805876 150 142 122 -0.409205 -0.897378 -0.165118 0.000000 
0.625199 0.048245 -0.404712 82 78 60 0.114339 -0.690490 -0.714248 0.000000 
0.499801 0.126164 -0.533748 74 71 50 0.557354 -0.510206 -0.655017 0.000000 
0.261335 0.280242 -0.739656 154 143 118 0.397601 -0.531771 -0.747752 0.000000 
0.605449 0.063321 -0.429009 72 67 46 0.329039 0.037129 0.943586 0.000000 
0.700217 0.009878 -0.354911 141 131 117 0.638387 -0.425036 -0.641721 0.000000 
0.528036 0.091631 -0.493209 92 89 75 0.006901 -0.782598 -0.622490 0.000000 
0.368234 0.212923 -0.640091 122 115 94 0.301083 0.850751 0.430780 0.000000 
0.245290 0.309633 -0.793244 109 106 91 0.845465 0.457383 -0.275662 0.000000 
0.297445 0.248969 -0.727491 107 98 76 0.037788 0.813152 0.580823 0.000000 
0.687378 0.011217 -0.345388 82 76 54 0.308161 0.810700 0.497798 0.000000 
0.295575 0.248992 -0.727148 110 99 76 -0.190431 -0.894006 -0.405573 0.000000 
0.843980 -0.083680 -0.200079 100 94 57 0.380190 0.533571 0.755485 0.000000 
0.342127 0.221611 -0.695980 111 107 96 -0.413221 0.638915 0.648873 0.000000 
0.642448 0.044989 -0.383194 108 101 79 -0.346921 0.540551 0.766453 0.000000 
0.810760 -0.068395 -0.230227 102 94 66 -0.391939 -0.917218 0.071384 0.000000 
0.205113 0.319492 -0.812706 78 69 40 0.489031 -0.009379 -0.872216 0.000000 
0.463554 0.131353 -0.549926 107 101 77 0.666807 0.633714 -0.392142 0.000000 
0.552795 0.099501 -0.488602 88 82 63 0.609192 -0.110095 -0.785344 0.000000 
0.366419 0.206636 -0.634576 151 142 115 -0.517335 0.191550 0.834070 0.000000 
0.230314 0.319884 -0.797173 109 101 78 0.476264 0.854872 0.205830 0.000000 
0.605378 0.066273 -0.436169 65 63 42 -0.137633 0.818396 0.557930 0.000000 
0.825795 -0.080334 -0.218076 91 88 61 0.421549 0.898082 0.125478 0.000000 
0.613868 0.072165 -0.430624 72 70 51 0.425590 0.904870 -0.009167 0.000000 
0.452540 0.163289 -0.567435 155 145 129 -0.171581 -0.840000 -0.514742 0.000000 
0.686340 0.006853 -0.350378 86 88 79 -0.011536 -0.375561 -0.926726 0.000000 
0.451570 0.168280 -0.574618 126 121 102 0.326130 0.941421 0.085824 0.000000 
0.465020 0.143802 -0.564280 69 66 44 -0.620453 -0.097813 0.778120 0.000000 
0.424886 0.158825 -0.578622 131 131 124 0.698761 -0.104888 -0.707624 0.000000 
0.421276 0.185612 -0.600762 100 96 75 0.690653 0.614830 -0.380766 0.000000 
0.527001 0.090021 -0.488636 121 119 107 0.675065 0.652181 -0.344888 0.000000 
0.451457 0.138848 -0.562902 113 104 73 0.682726 0.685894 -0.251864 0.000000 
0.304786 0.254744 -0.697840 162 151 127 -0.064907 0.725520 0.685133 0.000000 
0.653260 0.028421 -0.372488 89 83 59 -0.033907 -0.880226 -0.473342 0.000000 
0.604934 0.074226 -0.437318 94 91 78 -0.987046 0.155849 0.038097 0.000000 
0.351791 0.208652 -0.646923 145 135 114 -0.760638 -0.246227 0.600668 0.000000 
0.298121 0.266910 -0.721291 150 136 114 0.182790 -0.658966 -0.729624 0.000000 
0.388534 0.182142 -0.617235 137 130 112 0.792152 0.344066 -0.504097 0.000000 
0.352109 0.232421 -0.668778 153 144 128 -0.253660 -0.891520 0.375299 0.000000 
0.345714 0.212606 -0.668154 109 98 73 -0.382387 -0.883239 -0.271420 0.000000 
0.468255 0.125841 -0.545469 145 139 125 0.611770 0.674771 -0.412821 0.000000 
0.365229 0.194083 -0.644562 114 104 79 0.517005 0.845076 0.136208 0.000000 
0.520214 0.102297 -0.493456 108 101 76 0.763014 0.198846 -0.615036 0.000000 
0.298232 0.262257 -0.737280 84 75 50 -0.654398 0.323139 0.683626 0.000000 
0.360025 0.199500 -0.648501 106 96 73 -0.558535 -0.796802 -0.230531 0.000000 
0.452257 0.149756 -0.576285 73 70 51 -0.771099 -0.049703 0.634772 0.000000 
0.750261 -0.031873 -0.281972 108 103 82 -0.677409 -0.696270 0.237329 0.000000 
0.540501 0.101564 -0.476774 146 141 121 -0.354961 0.427530 0.831397 0.000000 
0.207730 0.304850 -0.832445 112 106 96 0.348644 -0.506097 -0.788868 0.000000 
0.286602 0.252050 -0.730316 106 96 71 -0.343023 -0.902460 -0.260580 0.000000 
0.435908 0.173318 -0.582014 147 143 129 -0.001243 0.945912 0.324419 0.000000 
0.579158 0.063550 -0.443770 80 79 63 0.385206 0.899782 0.204959 0.000000 
0.579230 0.078355 -0.436863 133 127 109 -0.686591 0.355585 0.634154 0.000000 
0.513822 0.102937 -0.501748 118 109 88 -0.613832 -0.479294 0.627286 0.000000 
0.620444 0.056269 -0.418219 70 68 48 0.322169 -0.701001 -0.636243 0.000000 
0.609322 0.068744 -0.434328 85 82 62 -0.295434 0.849179 0.437737 0.000000 
0.583233 0.058637 -0.442524 146 136 125 -0.406829 0.645945 0.645945 0.000000 
0.344089 0.224981 -0.691228 74 71 55 0.223629 -0.727185 -0.648993 0.000000 
0.695421 0.010917 -0.335148 132 127 113 0.888048 -0.277047 -0.366900 0.000000 
0.353192 0.223691 -0.684112 109 106 94 0.887725 0.160224 -0.431593 0.000000 
0.563258 0.078132 -0.456639 110 102 78 -0.858976 -0.390163 0.331562 0.000000 
0.852137 -0.088591 -0.199720 108 103 69 -0.496184 0.613922 0.613922 0.000000 
0.684424 0.024135 -0.355202 88 84 67 0.767083 0.640872 -0.029449 0.000000 
0.656018 0.036631 -0.387834 95 95 79 0.534024 -0.350101 -0.769576 0.000000 
0.775699 -0.050799 -0.255879 119 122 111 0.733035 -0.023827 -0.679774 0.000000 
0.239204 0.307960 -0.799687 106 94 60 0.781208 0.338470 -0.524549 0.000000 
0.614706 0.063342 -0.427200 85 80 61 -0.004132 0.621156 0.783676 0.000000 
0.617763 0.069122 -0.422134 83 84 71 0.220498 0.886433 0.406960 0.000000 
0.658209 0.037688 -0.371966 130 126 112 0.113266 -0.861683 -0.494644 0.000000 
0.329935 0.246609 -0.670634 131 125 108 0.321953 -0.346137 -0.881213 0.000000 
0.381999 0.208064 -0.643050 129 126 115 0.596677 0.800766 0.052440 0.000000 
0.342479 0.236024 -0.676313 100 95 73 0.292567 0.955552 0.036414 0.000000 
0.233812 0.311971 -0.802569 86 79 56 0.840262 0.372228 -0.394216 0.000000 
0.494353 0.126418 -0.538256 85 79 54 0.372269 -0.485078 -0.791274 0.000000 
0.221235 0.305450 -0.818027 102 90 64 -0.633415 0.123123 0.763955 0.000000 
0.381379 0.204305 -0.625930 153 143 121 0.193059 -0.715090 -0.671844 0.000000 
0.224222 0.290413 -0.771574 152 142 115 -0.572517 0.449000 0.686019 0.000000 
0.648003 0.037934 -0.393858 94 96 80 0.103382 -0.935812 -0.337000 0.000000 
0.634228 0.054743 -0.393619 139 128 110 0.146939 -0.865628 -0.478641 0.000000 
0.527236 0.109742 -0.507863 85 71 45 0.205559 -0.528363 -0.823759 0.000000 
0.205603 0.324288 -0.832015 102 92 64 -0.787664 -0.389789 0.477127 0.000000 
0.647359 0.036082 -0.376349 98 93 73 0.771540 0.263491 -0.579049 0.000000 
0.497646 0.105584 -0.514805 123 126 119 0.756213 0.587458 -0.288157 0.000000 
0.233334 0.305219 -0.790575 81 69 38 0.771084 0.035242 -0.635757 0.000000 
0.268039 0.266205 -0.731212 147 141 128 0.822647 -0.115434 -0.556711 0.000000 
0.732366 -0.006866 -0.303413 85 85 66 -0.231214 -0.917676 -0.323125 0.000000 
0.323839 0.248306 -0.695273 92 84 59 0.408974 0.868119 0.281264 0.000000 
0.392626 0.192093 -0.614802 172 163 144 0.336618 -0.401770 -0.851628 0.000000 
0.507834 0.120745 -0.511686 111 104 85 0.081921 -0.890028 -0.448485 0.000000 
0.776259 -0.040929 -0.262232 86 85 70 0.220328 0.451148 0.864825 0.000000 
0.477250 0.132868 -0.535886 150 145 128 0.395710 -0.342948 -0.851939 0.000000 
0.531100 0.116285 -0.506608 74 71 49 0.780531 0.551618 -0.294090 0.000000 
0.459688 0.150719 -0.568297 68 64 41 -0.634645 -0.149239 0.758257 0.000000 
0.235595 0.292276 -0.766762 116 109 93 -0.193201 0.935427 0.296056 0.000000 
