ply
format ascii 1.0
comment Created by Open3D
obj_info Generated by CloudCompare!
element vertex 624
property float x
property float y
property float z
property uchar red
property uchar green
property uchar blue
property float nx
property float ny
property float nz
property float scalar_leaf1
end_header
0.876582 0.626118 0.064867 163 147 113 0.579627 -0.656911 0.482183 0.000000 
0.870392 0.613592 0.019718 61 52 25 0.083805 -0.905368 0.416277 0.000000 
0.900748 0.745136 0.188633 62 55 34 -0.544779 -0.625737 0.558272 0.000000 
0.817781 0.401319 -0.239996 113 101 64 0.406648 -0.814891 0.413027 0.000000 
0.770821 0.270477 -0.472348 80 73 48 -0.948714 0.031582 0.314554 0.000000 
0.784677 0.359314 -0.283971 135 122 89 0.172688 0.818393 -0.548098 0.000000 
0.822074 0.413821 -0.228507 131 113 72 -0.637331 0.734418 -0.233323 0.000000 
0.784926 0.274719 -0.472682 78 69 41 0.894358 0.430931 -0.120095 0.000000 
0.923447 0.834756 0.296363 77 70 48 0.152185 -0.634356 0.757913 0.000000 
0.793496 0.351058 -0.329301 57 41 13 0.841300 -0.513714 0.168260 0.000000 
0.815220 0.490584 -0.148687 74 65 41 -0.015073 -0.831745 0.554953 0.000000 
0.821972 0.434257 -0.194815 157 141 102 -0.315554 -0.632727 0.707165 0.000000 
0.826781 0.412874 -0.251388 93 81 45 0.997237 -0.065340 -0.035348 0.000000 
0.795658 0.440590 -0.203321 87 81 59 0.846062 -0.370641 -0.383152 0.000000 
0.813021 0.488475 -0.149932 80 75 45 0.222932 -0.737391 0.637617 0.000000 
0.795946 0.438928 -0.197033 115 112 84 0.851514 0.356484 -0.384504 0.000000 
0.814221 0.514100 -0.106211 152 147 123 -0.715133 -0.389624 0.580326 0.000000 
0.860673 0.669260 0.084061 128 117 100 0.968503 0.003574 -0.248976 0.000000 
0.873631 0.577878 -0.019631 68 62 38 -0.954292 -0.194616 0.226829 0.000000 
0.802829 0.372073 -0.280793 123 109 68 -0.603769 0.623951 -0.496133 0.000000 
0.905063 0.740276 0.204286 170 156 125 0.313091 -0.443934 0.839581 0.000000 
0.787515 0.316058 -0.376999 56 44 19 -0.998212 0.041196 0.043309 0.000000 
0.818027 0.482231 -0.162349 100 94 76 0.148296 -0.792411 0.591687 0.000000 
0.819069 0.452956 -0.201805 85 78 46 -0.669274 0.612809 -0.420164 0.000000 
0.897795 0.766429 0.208996 104 93 77 0.881119 -0.445640 0.158224 0.000000 
0.828696 0.495776 -0.108075 153 144 123 -0.342914 -0.736210 0.583442 0.000000 
0.826881 0.413295 -0.256514 90 79 45 0.975587 0.092736 -0.199074 0.000000 
0.787920 0.280134 -0.389849 117 107 93 -0.196163 0.816586 -0.542870 0.000000 
0.819730 0.405477 -0.236320 131 111 69 0.551986 -0.666075 0.501653 0.000000 
0.794853 0.195736 -0.558155 89 79 50 0.768552 0.564031 -0.301988 0.000000 
0.782459 0.272541 -0.485905 97 91 66 0.732638 0.484566 -0.477951 0.000000 
0.879023 0.612359 0.012990 130 122 100 -0.974486 0.025048 0.223046 0.000000 
0.831950 0.428741 -0.205072 106 93 54 0.717187 -0.667619 -0.199821 0.000000 
0.902939 0.781657 0.248629 159 156 139 0.232614 -0.914561 0.330860 0.000000 
0.777936 0.221760 -0.543953 87 77 48 0.245364 -0.786104 0.567307 0.000000 
0.903584 0.772775 0.211617 84 75 47 0.782271 0.501621 -0.369361 0.000000 
0.901901 0.779589 0.214333 90 84 65 -0.469701 -0.566650 0.676971 0.000000 
0.838011 0.445118 -0.178363 126 107 67 0.667308 -0.607400 0.431004 0.000000 
0.830033 0.507602 -0.120682 52 44 16 -0.069791 -0.821825 0.565450 0.000000 
0.925274 0.841279 0.302475 140 128 118 -0.140535 -0.948945 0.282408 0.000000 
0.895678 0.760104 0.194256 120 107 95 0.420426 0.529243 -0.736983 0.000000 
0.776258 0.241145 -0.490722 49 39 19 -0.845689 -0.398615 0.354846 0.000000 
0.792389 0.322149 -0.401751 88 73 33 0.993413 -0.018661 -0.113062 0.000000 
0.946516 0.860058 0.341259 148 141 117 0.982860 -0.139714 -0.120276 0.000000 
0.793141 0.264699 -0.445599 102 87 46 0.933050 -0.342615 0.109691 0.000000 
0.778247 0.299510 -0.432201 65 59 38 0.918051 0.108735 -0.381260 0.000000 
0.824024 0.427577 -0.199498 132 121 88 -0.011464 0.933678 -0.357931 0.000000 
0.906694 0.795593 0.240899 84 80 64 0.419833 -0.742529 0.521911 0.000000 
0.921619 0.840019 0.310510 114 111 102 0.866056 -0.326496 -0.378612 0.000000 
0.792714 0.224608 -0.536165 110 99 65 -0.983861 -0.141241 0.109854 0.000000 
0.914781 0.810744 0.259208 83 69 43 -0.756609 -0.494012 0.428362 0.000000 
0.843449 0.463970 -0.176310 106 94 65 0.999936 -0.002973 -0.010901 0.000000 
0.787896 0.339202 -0.335040 83 69 38 -0.773488 0.521579 -0.360100 0.000000 
0.853382 0.621747 0.039581 160 151 130 0.712500 0.529808 -0.460052 0.000000 
0.905804 0.783992 0.224111 76 68 46 0.183478 -0.851754 0.490766 0.000000 
0.913054 0.754811 0.213589 147 132 100 -0.819930 0.532878 -0.209181 0.000000 
0.852410 0.616610 0.012884 57 50 24 0.538401 0.605912 -0.585658 0.000000 
0.853334 0.631918 0.027289 67 58 31 0.222208 0.772288 -0.595143 0.000000 
0.832897 0.450674 -0.209956 78 70 40 0.679742 0.521975 -0.515261 0.000000 
0.917786 0.805585 0.260160 88 71 38 0.867287 0.134654 -0.479252 0.000000 
0.841330 0.456802 -0.178119 96 84 46 0.990302 -0.051400 -0.129071 0.000000 
0.907043 0.771295 0.214625 68 61 37 0.886593 0.233158 -0.399487 0.000000 
0.909401 0.761759 0.213070 71 61 36 0.651635 0.424979 -0.628303 0.000000 
0.791996 0.302653 -0.408314 117 102 57 -0.793865 -0.190467 0.577495 0.000000 
0.884985 0.633755 0.052061 97 84 50 -0.879637 -0.212122 0.425727 0.000000 
0.883487 0.688575 0.115870 54 45 20 -0.402153 -0.490073 0.773371 0.000000 
0.853485 0.515535 -0.109300 66 59 34 0.921149 0.294595 -0.254358 0.000000 
0.781579 0.288018 -0.462991 106 94 60 -0.942067 -0.304986 0.139616 0.000000 
0.767249 0.261199 -0.501880 89 81 64 0.697574 -0.632532 0.336592 0.000000 
0.788891 0.283838 -0.385277 115 109 88 0.058407 0.784927 -0.616830 0.000000 
0.829567 0.515666 -0.116873 92 83 58 -0.375515 -0.726434 0.575571 0.000000 
0.870838 0.563009 -0.034449 98 85 49 0.955657 -0.288860 0.057263 0.000000 
0.794400 0.431067 -0.218950 61 58 32 0.662404 -0.622560 0.416700 0.000000 
0.803750 0.191104 -0.547191 104 96 68 0.937300 0.347481 -0.026927 0.000000 
0.856808 0.635263 0.064580 111 104 72 -0.638384 -0.721167 -0.269045 0.000000 
0.862332 0.607050 0.034631 116 108 84 0.621140 0.285820 -0.729720 0.000000 
0.784048 0.297966 -0.392728 52 42 21 0.878920 -0.465644 0.103319 0.000000 
0.800593 0.211216 -0.526147 95 89 66 0.989364 0.068272 -0.128444 0.000000 
0.821263 0.410989 -0.231153 132 113 72 -0.603964 0.650808 -0.460083 0.000000 
0.830794 0.514737 -0.112070 57 47 17 -0.159350 -0.651057 0.742114 0.000000 
0.932614 0.868305 0.346306 102 96 79 -0.294783 0.878302 -0.376415 0.000000 
0.786912 0.247774 -0.445889 109 101 81 0.661557 -0.530256 0.530256 0.000000 
0.808194 0.372364 -0.341226 95 89 64 0.589761 0.640168 -0.492308 0.000000 
0.806252 0.466722 -0.161106 164 152 124 0.234343 0.674719 -0.699884 0.000000 
0.885308 0.739953 0.167465 80 75 56 0.665714 -0.639284 0.384892 0.000000 
0.777488 0.233003 -0.509091 56 47 24 0.808606 0.571217 -0.140950 0.000000 
0.792585 0.226862 -0.534673 80 73 50 0.972698 0.158938 -0.169110 0.000000 
0.948183 0.900602 0.399209 150 149 139 -0.902202 0.282030 -0.326328 0.000000 
0.893094 0.719778 0.182076 145 136 114 0.348386 0.512143 -0.785072 0.000000 
0.792152 0.257675 -0.438432 82 76 55 0.834278 -0.373769 0.405311 0.000000 
0.886403 0.702637 0.133328 58 47 18 -0.459313 -0.727936 0.509058 0.000000 
0.776098 0.206548 -0.516775 83 76 49 0.546348 0.727914 -0.414300 0.000000 
0.885560 0.665089 0.113484 137 126 94 0.408882 -0.773781 0.483817 0.000000 
0.843526 0.622817 0.014077 74 69 53 -0.041063 -0.749040 0.661251 0.000000 
0.792404 0.206234 -0.556236 93 85 60 -0.935212 -0.337753 0.106305 0.000000 
0.856341 0.600674 0.019317 143 133 113 0.904338 0.286741 -0.316151 0.000000 
0.799553 0.327910 -0.376545 89 75 36 0.984723 0.052942 -0.165885 0.000000 
0.893088 0.666864 0.096128 101 88 51 -0.831256 -0.376983 0.408530 0.000000 
0.851571 0.495494 -0.122774 99 86 49 -0.919578 0.228101 0.319916 0.000000 
0.816589 0.395666 -0.297529 84 76 45 0.542496 0.754281 -0.369809 0.000000 
0.855428 0.533251 -0.059295 162 143 103 -0.264619 0.733644 -0.625895 0.000000 
0.846013 0.612682 0.018791 145 137 114 0.806167 0.362376 -0.467737 0.000000 
0.832925 0.437754 -0.224511 64 57 31 0.855563 0.338821 -0.391424 0.000000 
0.776131 0.212198 -0.541601 59 51 28 0.459172 0.721082 -0.518847 0.000000 
0.900176 0.766059 0.200733 85 75 50 0.693832 0.369059 -0.618379 0.000000 
0.848836 0.475600 -0.145547 90 82 60 0.951413 -0.293646 -0.092662 0.000000 
0.883545 0.653057 0.072551 64 58 35 -0.590048 -0.637117 0.495909 0.000000 
0.924167 0.808993 0.268412 122 110 83 0.401832 0.587038 -0.702792 0.000000 
0.811169 0.366956 -0.327325 104 92 60 0.960930 -0.267842 -0.069817 0.000000 
0.790813 0.244254 -0.510392 73 66 43 -0.598159 -0.769061 0.225281 0.000000 
0.825473 0.416783 -0.219690 137 119 79 -0.478355 0.856867 -0.192236 0.000000 
0.834289 0.440018 -0.180511 115 107 83 -0.400883 0.855940 -0.326588 0.000000 
0.842481 0.461713 -0.173395 109 94 59 0.993424 -0.048051 0.103924 0.000000 
0.766056 0.206299 -0.563465 93 84 62 -0.049894 -0.734161 0.677139 0.000000 
0.786106 0.303331 -0.386764 52 43 20 -0.948986 0.271332 -0.160639 0.000000 
0.865079 0.633561 0.065645 138 128 97 -0.963474 -0.133564 0.232116 0.000000 
0.786837 0.399319 -0.248758 73 64 39 -0.565073 0.723227 -0.397034 0.000000 
0.793672 0.349416 -0.346531 52 43 23 0.951863 0.209870 -0.223410 0.000000 
0.793978 0.384786 -0.249709 130 118 88 -0.025643 -0.875899 0.481812 0.000000 
0.795134 0.187012 -0.539257 131 119 80 0.152513 0.872954 -0.463348 0.000000 
0.870170 0.614869 0.050432 165 152 123 -0.188396 0.827435 -0.529016 0.000000 
0.794384 0.233249 -0.478633 127 117 83 0.860973 -0.431249 0.269721 0.000000 
0.885827 0.656741 0.079767 77 72 53 0.462884 0.718383 -0.519293 0.000000 
0.929268 0.815201 0.278605 121 115 109 -0.600616 0.012427 0.799441 0.000000 
0.896102 0.701920 0.139125 79 73 55 -0.426586 -0.705444 0.566015 0.000000 
0.862387 0.538937 -0.056991 105 92 54 0.765343 -0.588604 0.260374 0.000000 
0.850890 0.498557 -0.128485 108 96 67 0.891515 0.058706 -0.449171 0.000000 
0.793319 0.323563 -0.403201 87 73 33 -0.953957 0.288646 -0.081546 0.000000 
0.784891 0.347091 -0.319563 52 40 14 0.608321 -0.677938 0.412730 0.000000 
0.778933 0.249120 -0.461519 77 68 40 -0.916008 -0.287971 0.279288 0.000000 
0.857510 0.577387 0.003041 157 144 127 -0.613958 -0.556453 0.559835 0.000000 
0.853143 0.631635 0.027114 57 50 24 0.246577 0.752294 -0.610945 0.000000 
0.859630 0.520400 -0.079254 95 87 66 -0.875871 0.458928 -0.149115 0.000000 
0.883682 0.729304 0.153360 68 63 43 0.199896 -0.677166 0.708158 0.000000 
0.808809 0.441786 -0.187717 162 150 116 -0.004140 0.771485 -0.636234 0.000000 
0.774141 0.219248 -0.547558 85 78 50 -0.109910 -0.801613 0.587654 0.000000 
0.860119 0.527262 -0.073118 104 89 50 0.871331 -0.383020 0.306721 0.000000 
0.935255 0.874063 0.361750 122 110 97 -0.996744 -0.011701 0.079782 0.000000 
0.797078 0.318888 -0.357617 110 96 55 0.817215 -0.489699 0.303897 0.000000 
0.796495 0.232231 -0.493997 122 109 70 -0.996484 -0.082239 -0.016021 0.000000 
0.796314 0.242877 -0.494572 92 84 58 -0.978507 -0.034480 -0.203311 0.000000 
0.796900 0.306299 -0.390707 106 92 54 -0.966267 0.185971 0.178168 0.000000 
0.780988 0.243683 -0.450750 100 93 71 -0.121295 -0.825682 0.550942 0.000000 
0.885968 0.656656 0.100701 152 134 98 -0.590497 0.680320 -0.434140 0.000000 
0.866268 0.625747 0.054040 119 107 76 0.938113 0.053346 -0.342196 0.000000 
0.923469 0.808515 0.283273 160 152 127 0.558309 -0.738409 0.378210 0.000000 
0.838279 0.525274 -0.065630 131 125 105 0.052838 0.758297 -0.649765 0.000000 
0.820872 0.401326 -0.246554 117 104 66 0.382164 -0.807502 0.449323 0.000000 
0.790114 0.303805 -0.357791 110 105 89 0.693260 -0.499481 0.519527 0.000000 
0.923275 0.802221 0.275760 134 122 95 0.360184 -0.798807 0.481846 0.000000 
0.784139 0.313513 -0.364146 60 43 12 -0.788934 0.524362 -0.320355 0.000000 
0.921594 0.802979 0.266416 76 65 42 0.791089 0.409296 -0.454593 0.000000 
0.794176 0.200829 -0.553834 111 98 59 0.929454 0.303236 -0.210150 0.000000 
0.869172 0.570619 -0.010330 119 106 70 -0.683033 0.698592 -0.213156 0.000000 
0.914521 0.735144 0.187156 135 128 104 0.951125 -0.303387 -0.057605 0.000000 
0.851139 0.604023 0.023463 168 159 138 0.792923 0.187197 -0.579854 0.000000 
0.849075 0.631701 0.027399 76 69 46 -0.188810 0.981576 0.029318 0.000000 
0.789449 0.294556 -0.441660 122 110 77 0.923473 0.113890 -0.366370 0.000000 
0.843986 0.560229 -0.038845 138 129 90 0.479784 -0.349079 -0.804954 0.000000 
0.795027 0.266523 -0.419618 114 105 68 0.808614 -0.588208 -0.012398 0.000000 
0.921393 0.800345 0.263817 72 62 39 0.829349 0.405986 -0.383870 0.000000 
0.897380 0.764483 0.225977 133 124 106 0.956815 0.091927 -0.275780 0.000000 
0.810332 0.370942 -0.288481 118 104 63 -0.240129 0.842745 -0.481787 0.000000 
0.808432 0.352396 -0.335649 91 79 46 -0.921040 0.387599 0.038103 0.000000 
0.860638 0.602036 0.030136 164 153 128 -0.651407 -0.597821 0.467204 0.000000 
0.853507 0.507159 -0.099682 104 91 53 -0.853341 0.486985 -0.186156 0.000000 
0.835491 0.509574 -0.095890 117 109 79 -0.690254 -0.573826 0.440765 0.000000 
0.847197 0.531496 -0.060812 164 148 113 0.249255 -0.815884 0.521732 0.000000 
0.879657 0.600057 0.009655 115 102 73 0.996657 -0.061951 -0.053256 0.000000 
0.906160 0.790894 0.247534 107 98 79 0.960651 -0.266635 -0.077822 0.000000 
0.819439 0.490923 -0.147698 54 48 23 -0.163019 -0.890115 0.425582 0.000000 
0.787897 0.310934 -0.428259 93 82 46 0.955110 0.108446 -0.275688 0.000000 
0.917137 0.763454 0.225288 115 106 79 0.575823 -0.812503 0.090920 0.000000 
0.783780 0.279635 -0.459973 115 99 56 0.962327 0.260604 -0.077545 0.000000 
0.869558 0.562651 -0.025221 96 86 55 -0.837986 0.510013 -0.194076 0.000000 
0.942382 0.871517 0.358403 121 115 94 0.999299 0.011228 -0.035726 0.000000 
0.892586 0.692627 0.147179 132 119 87 0.323010 -0.854663 0.406467 0.000000 
0.806844 0.344547 -0.362973 78 69 41 -0.965936 0.135412 0.220527 0.000000 
0.805489 0.371008 -0.344569 91 87 65 0.142977 0.696825 -0.702846 0.000000 
0.879295 0.731099 0.154617 119 111 90 -0.222905 -0.185531 0.957022 0.000000 
0.887939 0.679065 0.105656 72 61 36 0.067579 0.774999 -0.628339 0.000000 
0.823672 0.424094 -0.252790 66 60 34 0.396098 0.761226 -0.513461 0.000000 
0.805090 0.189592 -0.543442 146 136 111 0.925133 -0.252309 0.283670 0.000000 
0.785796 0.191208 -0.556802 56 49 27 -0.693900 -0.661850 0.283650 0.000000 
0.792572 0.224501 -0.485979 129 119 87 0.316583 -0.750479 0.580135 0.000000 
0.885254 0.736679 0.176006 118 106 85 0.959556 -0.183970 -0.213088 0.000000 
0.831730 0.434155 -0.231617 82 75 46 -0.878485 -0.196367 0.435551 0.000000 
0.754198 0.216756 -0.539745 90 84 62 -0.717190 -0.407232 0.565509 0.000000 
0.878730 0.605731 0.020339 98 86 52 0.991741 -0.085989 0.095161 0.000000 
0.857838 0.617090 0.012790 75 63 35 -0.536254 -0.657290 0.529530 0.000000 
0.837663 0.493426 -0.108918 152 142 125 0.697884 0.387713 -0.602193 0.000000 
0.794140 0.235507 -0.479243 113 101 65 0.939107 -0.262950 0.221212 0.000000 
0.820286 0.524896 -0.106135 69 63 36 0.283881 -0.769176 0.572521 0.000000 
0.822093 0.459462 -0.189440 58 51 25 0.462354 -0.682681 0.565841 0.000000 
0.784822 0.220486 -0.488211 115 109 86 0.560152 0.818910 -0.124968 0.000000 
0.818536 0.395207 -0.254733 118 104 66 0.376478 -0.833292 0.404832 0.000000 
0.862699 0.673247 0.077814 75 70 49 0.284738 -0.829318 0.480787 0.000000 
0.863129 0.641276 0.047810 67 58 30 -0.615036 -0.763014 0.198846 0.000000 
0.804922 0.342269 -0.338661 90 80 54 -0.841199 0.479591 -0.249755 0.000000 
0.888258 0.742154 0.168774 70 66 46 -0.381313 -0.652029 0.655331 0.000000 
0.770765 0.275656 -0.473883 72 66 42 0.975614 -0.017738 -0.218774 0.000000 
0.851249 0.586988 -0.001572 132 123 99 0.694093 0.658827 -0.290141 0.000000 
0.909696 0.780496 0.226268 85 69 37 -0.816430 -0.306751 0.489229 0.000000 
0.949691 0.901937 0.406445 110 111 107 0.220411 0.711254 -0.667485 0.000000 
0.788570 0.260220 -0.432196 115 103 69 0.780874 -0.430211 0.452939 0.000000 
0.922317 0.800213 0.255023 129 117 92 0.700405 0.577876 -0.418918 0.000000 
0.778500 0.320205 -0.330640 109 105 88 0.133221 0.681074 -0.719993 0.000000 
0.885493 0.654669 0.098498 126 113 79 -0.528640 0.679680 -0.508502 0.000000 
0.829668 0.435123 -0.234659 78 73 46 -0.471783 -0.649751 0.596024 0.000000 
0.775680 0.244916 -0.518066 77 70 46 -0.035282 -0.667534 0.743743 0.000000 
0.799000 0.311450 -0.372805 114 97 56 0.893785 -0.420351 0.156376 0.000000 
0.883936 0.729659 0.151404 84 76 63 0.520785 0.514086 -0.681541 0.000000 
0.895917 0.759916 0.193136 122 110 100 -0.579595 -0.579595 0.572835 0.000000 
0.851379 0.537859 -0.044173 157 144 128 0.156139 0.871167 -0.465498 0.000000 
0.840161 0.488881 -0.118071 165 148 107 0.248819 0.909427 -0.333214 0.000000 
0.869078 0.674437 0.101514 126 113 86 -0.051601 -0.995790 -0.075755 0.000000 
0.807419 0.394059 -0.240718 116 107 77 -0.326635 0.852967 -0.407133 0.000000 
0.916163 0.802787 0.255143 61 51 26 0.831579 0.358194 -0.424468 0.000000 
0.876709 0.645023 0.090278 143 136 120 -0.150200 -0.822382 0.548751 0.000000 
0.846386 0.608993 0.001334 57 51 27 -0.399869 -0.732269 0.551259 0.000000 
0.790433 0.255025 -0.486203 85 74 44 -0.888263 -0.352010 0.295089 0.000000 
0.815424 0.419226 -0.208407 150 134 96 -0.055442 -0.786144 0.615552 0.000000 
0.868605 0.662232 0.092296 120 108 76 -0.812743 -0.269874 0.516349 0.000000 
0.903188 0.777732 0.239379 127 116 102 0.939797 -0.248484 -0.234602 0.000000 
0.862901 0.532800 -0.080717 66 60 36 0.983589 -0.154924 -0.092474 0.000000 
0.844122 0.609469 -0.000253 70 62 39 -0.329222 -0.705475 0.627629 0.000000 
0.857239 0.518495 -0.085731 102 89 52 0.887261 -0.455396 0.073362 0.000000 
0.917720 0.765894 0.229208 156 142 115 0.664677 -0.591010 0.457070 0.000000 
0.909225 0.770399 0.237344 168 156 129 0.233322 0.811218 -0.536177 0.000000 
0.857273 0.589871 0.014325 169 155 129 -0.764418 -0.239174 0.598716 0.000000 
0.787266 0.401127 -0.248830 54 49 28 0.543070 -0.667489 0.509444 0.000000 
0.885948 0.664029 0.112248 164 150 117 -0.518699 0.727504 -0.449097 0.000000 
0.804139 0.346519 -0.371255 90 78 43 -0.908047 -0.273438 0.317305 0.000000 
0.874775 0.664580 0.110845 137 128 107 0.634711 0.347541 -0.690187 0.000000 
0.816815 0.381629 -0.305832 97 85 51 0.955736 -0.028660 -0.292827 0.000000 
0.901574 0.707539 0.156649 116 102 66 0.806928 -0.517504 0.284706 0.000000 
0.908961 0.759128 0.223744 167 152 120 0.409523 -0.595217 0.691381 0.000000 
0.820522 0.386372 -0.292034 88 76 39 0.921469 -0.250789 -0.296647 0.000000 
0.800232 0.357994 -0.300246 126 108 69 -0.622145 0.578308 -0.527727 0.000000 
0.890089 0.753700 0.190724 86 80 63 -0.943408 0.328198 0.047621 0.000000 
0.786959 0.407884 -0.241061 84 79 60 -0.760895 0.554112 -0.337637 0.000000 
0.890258 0.679148 0.130678 113 105 84 0.558262 -0.735072 0.384726 0.000000 
0.889563 0.649661 0.082732 87 77 52 0.863104 -0.308142 0.400125 0.000000 
0.778843 0.283132 -0.472722 85 77 61 -0.530969 -0.688417 0.494119 0.000000 
0.864424 0.544916 -0.051423 101 88 51 0.763608 -0.550508 0.337408 0.000000 
0.794316 0.376692 -0.255801 112 106 94 0.199477 -0.706673 0.678839 0.000000 
0.871994 0.570536 -0.020317 101 90 56 0.901778 -0.431745 0.019805 0.000000 
0.827044 0.436929 -0.230760 57 53 30 -0.152533 -0.875977 0.457600 0.000000 
0.823739 0.399011 -0.253362 113 101 63 0.488544 -0.763044 0.423187 0.000000 
0.843982 0.506324 -0.094994 164 147 108 -0.384942 -0.659193 0.645976 0.000000 
0.834186 0.433631 -0.208401 113 97 61 -0.922763 0.229621 0.309489 0.000000 
0.820214 0.451049 -0.177771 159 143 103 0.122828 0.788763 -0.602301 0.000000 
0.799444 0.319504 -0.369686 90 76 39 -0.958981 0.208244 -0.192327 0.000000 
0.816704 0.417873 -0.210923 146 128 90 -0.146110 -0.751640 0.643187 0.000000 
0.835455 0.485674 -0.156470 67 60 34 0.258284 -0.796766 0.546309 0.000000 
0.837584 0.598445 -0.008780 130 125 95 0.958889 -0.243340 0.146004 0.000000 
0.915299 0.806078 0.254254 84 72 45 -0.525710 -0.663437 0.532429 0.000000 
0.885780 0.629185 0.053218 97 86 53 0.884306 -0.466754 0.011968 0.000000 
0.792139 0.281226 -0.390176 102 95 75 -0.489625 0.746802 -0.450060 0.000000 
0.798435 0.216934 -0.526259 90 82 55 0.851702 0.421987 -0.310694 0.000000 
0.866204 0.545119 -0.057638 109 94 63 0.928371 -0.366846 -0.059596 0.000000 
0.795813 0.223255 -0.527717 117 105 67 -0.818318 -0.176323 0.547052 0.000000 
0.800471 0.205653 -0.531843 125 111 72 -0.973901 -0.203260 -0.101006 0.000000 
0.795400 0.254031 -0.465091 114 100 58 0.983667 -0.055501 0.171227 0.000000 
0.759549 0.232638 -0.519631 115 108 87 -0.932050 -0.040298 0.360081 0.000000 
0.798914 0.289472 -0.386752 131 126 110 -0.932374 -0.350143 0.089884 0.000000 
0.934904 0.867098 0.357307 155 150 136 -0.548296 -0.558419 0.622527 0.000000 
0.846600 0.568854 -0.041330 59 52 22 -0.686918 -0.607467 0.398909 0.000000 
0.853748 0.497386 -0.119672 120 106 71 -0.897060 0.413477 0.155948 0.000000 
0.829906 0.426124 -0.208592 132 113 75 0.665217 -0.678165 0.312377 0.000000 
0.872125 0.689566 0.104070 67 62 41 0.797012 0.367235 -0.479490 0.000000 
0.787164 0.222638 -0.489085 93 87 62 0.188225 0.525524 -0.829696 0.000000 
0.820655 0.389029 -0.296821 102 92 58 0.865246 -0.062699 -0.497412 0.000000 
0.926146 0.811816 0.288486 104 96 81 0.628725 -0.618665 0.471125 0.000000 
0.867613 0.606952 0.039522 167 153 123 0.521019 0.558114 -0.645793 0.000000 
0.781926 0.324050 -0.326652 121 113 88 -0.093520 0.827295 -0.553928 0.000000 
0.803620 0.405096 -0.223421 140 130 102 0.126824 -0.747516 0.652025 0.000000 
0.781143 0.235559 -0.530236 100 92 61 -0.299229 0.793195 -0.530380 0.000000 
0.793358 0.199755 -0.522706 87 81 57 0.541471 0.837078 -0.078165 0.000000 
0.800444 0.451216 -0.178676 149 143 121 -0.613431 -0.379900 0.692371 0.000000 
0.846756 0.491300 -0.111621 146 133 98 -0.045052 -0.943520 0.328237 0.000000 
0.929654 0.819415 0.291653 118 105 72 0.973478 -0.127194 0.190162 0.000000 
0.790091 0.308155 -0.421382 88 75 42 -0.961149 0.229469 -0.153417 0.000000 
0.833804 0.429136 -0.220217 82 74 47 0.985297 -0.170815 0.003394 0.000000 
0.803969 0.359225 -0.303420 114 99 59 0.519974 -0.769432 0.370947 0.000000 
0.803110 0.344141 -0.331921 127 108 66 -0.662679 0.732435 -0.156192 0.000000 
0.856571 0.520006 -0.076602 108 98 72 0.748674 -0.563535 0.349164 0.000000 
0.872961 0.572676 -0.023410 100 88 54 -0.973492 0.224279 0.044856 0.000000 
0.858460 0.588502 0.012341 128 118 86 -0.781948 -0.493776 0.380451 0.000000 
0.798656 0.448450 -0.191112 72 68 49 0.965885 -0.255349 0.043175 0.000000 
0.797033 0.203579 -0.513095 94 90 70 0.756281 -0.616517 0.218964 0.000000 
0.799477 0.377193 -0.312625 41 35 18 0.996099 0.049204 -0.073259 0.000000 
0.794775 0.282306 -0.413739 113 100 59 -0.967980 0.194627 -0.158537 0.000000 
0.870458 0.712173 0.130875 141 137 119 0.830621 -0.550412 0.084349 0.000000 
0.813796 0.409926 -0.272218 69 63 38 -0.331862 0.743046 -0.581163 0.000000 
0.860613 0.539153 -0.051843 157 142 106 -0.551122 0.728797 -0.406349 0.000000 
0.765280 0.252289 -0.498617 109 102 84 -0.968538 0.211108 0.131783 0.000000 
0.777450 0.295409 -0.443020 69 64 41 0.965659 0.196251 -0.170258 0.000000 
0.797092 0.212850 -0.535162 120 107 67 -0.856867 -0.478355 0.192236 0.000000 
0.877752 0.709977 0.142874 126 113 91 -0.841068 0.499809 0.206870 0.000000 
0.784888 0.291313 -0.443164 103 91 55 -0.903474 -0.183000 0.387615 0.000000 
0.795607 0.279755 -0.422926 111 95 52 0.994704 0.018481 0.101101 0.000000 
0.835449 0.545444 -0.078709 56 45 17 -0.212155 -0.326063 0.921235 0.000000 
0.801555 0.331776 -0.374942 99 84 50 -0.965279 0.074252 0.250444 0.000000 
0.918469 0.805736 0.264603 60 50 25 -0.810829 -0.491555 0.317693 0.000000 
0.900328 0.680021 0.112359 119 112 105 0.977014 0.211983 -0.022501 0.000000 
0.793004 0.233429 -0.475200 118 107 73 -0.688436 0.669268 -0.279527 0.000000 
0.878739 0.604309 0.010725 96 87 58 0.919248 0.257504 -0.297784 0.000000 
0.781853 0.274691 -0.436665 50 38 16 -0.970072 -0.242814 0.001184 0.000000 
0.862896 0.546294 -0.041592 157 143 110 0.688317 -0.632729 0.354786 0.000000 
0.828280 0.546750 -0.057435 119 114 84 0.768138 0.542689 -0.339784 0.000000 
0.938092 0.860337 0.336802 101 91 64 0.653326 0.376855 -0.656617 0.000000 
0.815382 0.451615 -0.198434 49 40 12 0.353623 -0.721913 0.594804 0.000000 
0.854141 0.538045 -0.049171 152 139 105 0.136741 -0.830736 0.539611 0.000000 
0.891919 0.749722 0.203097 134 120 93 0.906833 0.409938 0.097999 0.000000 
0.811154 0.382546 -0.266621 110 101 75 -0.258779 0.782610 -0.566176 0.000000 
0.791968 0.293150 -0.375448 132 119 79 0.676574 -0.606755 0.417248 0.000000 
0.790379 0.278361 -0.447309 109 94 52 -0.727567 -0.618352 0.297130 0.000000 
0.936581 0.876397 0.363552 103 98 86 0.850738 -0.447676 -0.275375 0.000000 
0.877869 0.603511 0.028947 94 86 65 0.784202 -0.539238 0.307000 0.000000 
0.899608 0.695621 0.134660 105 91 55 0.840176 0.330125 -0.430258 0.000000 
0.788339 0.308974 -0.411298 113 99 57 0.821701 -0.078598 -0.564473 0.000000 
0.872054 0.616160 0.053162 152 140 112 -0.182790 0.729624 -0.658966 0.000000 
0.869898 0.577613 -0.028763 86 78 48 0.672037 0.470929 -0.571483 0.000000 
0.795629 0.327848 -0.390041 95 83 45 -0.841340 0.263015 0.472196 0.000000 
0.796701 0.387353 -0.279107 49 42 24 -0.675566 0.622710 -0.394769 0.000000 
0.791610 0.201966 -0.560719 104 92 58 0.930352 0.183272 -0.317579 0.000000 
0.800328 0.199965 -0.529992 130 117 77 -0.937128 0.072492 -0.341373 0.000000 
0.777026 0.352548 -0.291117 119 115 98 0.439574 0.633454 -0.636797 0.000000 
0.773193 0.232701 -0.530890 78 70 46 -0.355496 -0.748326 0.560027 0.000000 
0.865143 0.555496 -0.054879 64 58 33 -0.861470 -0.359074 0.359074 0.000000 
0.796792 0.334077 -0.330015 106 93 58 -0.875243 0.411259 -0.254589 0.000000 
0.834434 0.430713 -0.221007 71 66 41 0.980864 -0.175804 -0.083658 0.000000 
0.829221 0.420606 -0.216282 112 98 60 -0.652652 0.582186 -0.484875 0.000000 
0.787831 0.242117 -0.450847 126 118 101 0.838295 -0.477041 0.263994 0.000000 
0.879284 0.635355 0.075763 165 150 116 -0.657756 0.677245 -0.329690 0.000000 
0.800569 0.385114 -0.301233 38 35 20 -0.953595 0.298550 -0.039051 0.000000 
0.800826 0.450896 -0.192068 73 65 36 0.721339 -0.597588 0.350085 0.000000 
0.858824 0.628628 0.045389 129 120 101 -0.429324 -0.468502 0.772131 0.000000 
0.798792 0.337687 -0.329428 97 86 56 0.836032 -0.437623 0.330962 0.000000 
0.913995 0.810632 0.260800 80 68 48 0.092011 -0.766755 0.635311 0.000000 
0.954279 0.912798 0.421282 102 93 75 -0.064446 -0.961642 0.266631 0.000000 
0.890722 0.748226 0.178814 118 106 95 -0.456717 0.634050 -0.624012 0.000000 
0.877783 0.591931 0.006443 73 68 47 0.889377 -0.456125 0.030947 0.000000 
0.919147 0.766057 0.226607 122 107 73 0.934093 -0.356514 -0.019167 0.000000 
0.889368 0.656406 0.094576 122 107 70 0.721958 -0.573949 0.386470 0.000000 
0.847466 0.551095 -0.035495 129 119 87 0.601424 0.668063 -0.438156 0.000000 
0.906811 0.717830 0.165624 82 74 52 0.981970 -0.176251 -0.068342 0.000000 
0.794007 0.239295 -0.516158 78 70 47 -0.715958 -0.601796 0.353902 0.000000 
0.794690 0.346590 -0.376842 52 48 27 -0.247419 0.804501 -0.539965 0.000000 
0.781454 0.314328 -0.372252 93 84 64 0.868192 -0.313897 0.384332 0.000000 
0.862700 0.564755 -0.016352 161 143 108 -0.233055 0.758603 -0.608446 0.000000 
0.779646 0.356456 -0.289781 114 105 88 -0.484985 -0.585674 0.649443 0.000000 
0.822733 0.483903 -0.156034 76 64 39 -0.082016 -0.885499 0.457346 0.000000 
0.934044 0.850772 0.325130 80 72 52 -0.774620 -0.428895 0.464772 0.000000 
0.875322 0.588993 0.001542 101 90 55 -0.963045 0.265367 -0.046097 0.000000 
0.865088 0.641439 0.050343 64 55 27 -0.193147 -0.690695 0.696875 0.000000 
0.791530 0.347650 -0.302402 120 109 74 0.553169 -0.709319 0.436887 0.000000 
0.821765 0.464116 -0.180903 62 52 24 -0.320848 0.817135 -0.478901 0.000000 
0.805868 0.346849 -0.330750 106 92 56 0.740312 -0.659551 0.130116 0.000000 
0.866857 0.564767 -0.018072 120 106 70 -0.674265 0.634699 -0.377522 0.000000 
0.777930 0.299940 -0.450807 80 74 59 0.442434 -0.812992 0.378545 0.000000 
0.879829 0.644450 0.088907 165 151 119 -0.517722 0.732750 -0.441635 0.000000 
0.765917 0.238917 -0.507120 94 86 63 -0.891736 -0.241050 0.383018 0.000000 
0.924310 0.816751 0.280196 70 60 36 0.633047 0.468488 -0.616255 0.000000 
0.914271 0.803258 0.250559 83 77 62 0.432784 0.742151 -0.511771 0.000000 
0.774482 0.230896 -0.473844 73 64 31 -0.931708 -0.360955 0.040396 0.000000 
0.782356 0.283521 -0.464988 98 86 53 0.933659 0.333937 -0.129486 0.000000 
0.770429 0.248750 -0.491820 59 55 35 -0.828536 -0.311680 0.465171 0.000000 
0.786941 0.240539 -0.458679 122 113 83 -0.660152 0.512332 -0.549287 0.000000 
0.794394 0.250143 -0.468096 116 102 62 0.931198 -0.316915 0.180097 0.000000 
0.807023 0.353185 -0.364789 110 102 75 0.832469 0.446806 -0.327657 0.000000 
0.849029 0.489210 -0.126211 98 84 46 -0.978560 0.200024 -0.049108 0.000000 
0.813771 0.367266 -0.310345 112 95 59 0.907492 -0.418536 -0.035874 0.000000 
0.788622 0.288851 -0.375786 127 119 105 -0.297059 0.786334 -0.541696 0.000000 
0.783032 0.206464 -0.518783 122 111 71 0.564506 0.771227 -0.294179 0.000000 
0.937943 0.874880 0.369929 119 114 100 -0.244631 -0.714953 0.654979 0.000000 
0.781442 0.273059 -0.417854 73 63 39 -0.906753 -0.259281 0.332525 0.000000 
0.864490 0.538066 -0.071270 94 82 47 0.879640 -0.164296 0.446363 0.000000 
0.791154 0.277630 -0.398990 101 91 68 0.575029 -0.734669 0.360004 0.000000 
0.884169 0.712366 0.165473 130 123 105 0.834890 0.142830 -0.531562 0.000000 
0.866915 0.690776 0.101374 88 82 62 -0.253959 0.739793 -0.623066 0.000000 
0.839251 0.469436 -0.181024 92 87 70 -0.573760 -0.597455 0.560220 0.000000 
0.782242 0.341388 -0.304220 109 102 81 -0.058419 -0.793648 0.605566 0.000000 
0.823345 0.390089 -0.274772 107 92 58 0.959463 -0.266589 0.091439 0.000000 
0.827528 0.580555 -0.026476 149 144 124 0.975664 -0.126498 -0.179101 0.000000 
0.912435 0.736810 0.183417 141 132 110 0.776890 0.501167 -0.381147 0.000000 
0.855405 0.507549 -0.106511 102 89 52 -0.965534 0.260274 0.001199 0.000000 
0.841794 0.597414 -0.002831 126 119 89 0.962851 0.155467 -0.220789 0.000000 
0.939525 0.868387 0.348522 75 65 44 -0.665018 -0.671522 0.326818 0.000000 
0.788362 0.362190 -0.274772 149 137 123 -0.042714 0.858408 -0.511187 0.000000 
0.857879 0.522164 -0.080147 105 92 54 -0.817585 0.536397 -0.209363 0.000000 
0.838690 0.451330 -0.165456 102 96 76 -0.609239 0.582236 -0.538358 0.000000 
0.887897 0.683227 0.138727 142 132 107 0.229832 -0.841703 0.488583 0.000000 
0.782555 0.241079 -0.455316 112 106 85 -0.233570 -0.722657 0.650548 0.000000 
0.800965 0.319869 -0.376652 95 82 44 -0.990070 0.084532 0.112324 0.000000 
0.761354 0.222828 -0.528573 73 63 32 0.455456 0.723761 -0.518392 0.000000 
0.791567 0.317666 -0.416925 107 96 65 -0.950971 0.269598 0.151565 0.000000 
0.895827 0.729373 0.192495 147 137 115 -0.278480 -0.530213 0.800826 0.000000 
0.791120 0.242674 -0.460353 124 113 77 -0.860672 0.360030 -0.360030 0.000000 
0.830284 0.426179 -0.248976 118 107 68 0.872220 0.435362 -0.222917 0.000000 
0.888019 0.673516 0.127133 132 125 106 0.574832 -0.746472 0.335184 0.000000 
0.843496 0.537112 -0.057349 147 137 115 -0.666960 -0.627240 0.402162 0.000000 
0.826373 0.405243 -0.249532 102 88 50 0.927537 -0.316686 0.198456 0.000000 
0.792171 0.277493 -0.397372 97 93 78 0.494559 -0.707702 0.504550 0.000000 
0.904852 0.726583 0.186598 159 143 111 0.519403 -0.787895 0.330820 0.000000 
0.861462 0.531154 -0.090636 128 117 93 -0.704871 -0.647068 0.290619 0.000000 
0.824216 0.438726 -0.186328 158 143 107 -0.401981 -0.699745 0.590565 0.000000 
0.805880 0.388101 -0.259901 119 102 64 -0.212253 0.823052 -0.526815 0.000000 
0.888232 0.628652 0.041980 113 111 96 0.944212 0.274655 -0.181737 0.000000 
0.796236 0.242821 -0.475999 99 91 65 0.957853 -0.232489 0.168720 0.000000 
0.797415 0.318694 -0.357844 109 95 55 0.820832 -0.488105 0.296629 0.000000 
0.834442 0.517573 -0.084267 163 149 117 -0.585999 -0.596132 0.548846 0.000000 
0.795046 0.234934 -0.488185 110 100 69 0.980010 0.036736 0.195528 0.000000 
0.796047 0.385260 -0.246751 121 114 91 0.203549 -0.845860 0.493041 0.000000 
0.842533 0.522577 -0.074471 164 148 113 -0.048220 -0.869345 0.491848 0.000000 
0.845229 0.569973 -0.041924 62 55 26 0.681886 0.480838 -0.551205 0.000000 
0.794940 0.327287 -0.334596 98 90 63 0.856952 -0.396823 0.328884 0.000000 
0.823712 0.520536 -0.088664 156 144 119 -0.929579 -0.368516 -0.008926 0.000000 
0.875506 0.664479 0.105341 116 105 73 0.775674 0.356391 -0.520879 0.000000 
0.810691 0.367830 -0.337580 99 87 52 -0.979240 -0.059019 0.193921 0.000000 
0.795938 0.214136 -0.537974 117 105 68 0.722506 0.602359 -0.339334 0.000000 
0.873406 0.698224 0.125862 106 99 73 -0.442169 0.173657 0.879960 0.000000 
0.874977 0.592412 -0.009387 121 118 106 -0.762424 -0.545514 0.348028 0.000000 
0.806285 0.340099 -0.358487 97 83 45 -0.985063 0.169759 0.028871 0.000000 
0.803596 0.346534 -0.371683 90 78 43 0.894686 0.252878 -0.368226 0.000000 
0.819202 0.383195 -0.274539 123 114 92 0.586610 -0.666830 0.459594 0.000000 
0.763362 0.204915 -0.555669 95 81 55 -0.742612 0.206195 0.637189 0.000000 
0.814572 0.476196 -0.151004 159 147 116 0.089224 0.735730 -0.671372 0.000000 
0.900180 0.707797 0.158790 118 105 70 0.678813 -0.642827 0.354945 0.000000 
0.926559 0.808279 0.277320 140 125 95 0.913403 0.220775 -0.341985 0.000000 
0.825069 0.410765 -0.233106 107 97 65 0.535570 -0.676598 0.505350 0.000000 
0.948160 0.894502 0.388295 126 119 100 -0.821529 -0.340325 0.457460 0.000000 
0.791508 0.363641 -0.298671 64 50 20 0.109835 -0.871546 0.477853 0.000000 
0.926972 0.810508 0.280881 145 132 104 -0.765819 0.642616 0.023801 0.000000 
0.907919 0.747064 0.209523 139 127 95 -0.382149 0.733135 -0.562562 0.000000 
0.837772 0.484452 -0.160003 74 66 42 -0.229952 -0.749299 0.621026 0.000000 
0.791245 0.210437 -0.504029 86 81 59 -0.114459 -0.917051 0.381990 0.000000 
0.792515 0.267839 -0.440370 104 89 46 0.994937 -0.074315 0.067660 0.000000 
0.838063 0.477803 -0.129087 146 135 102 -0.055839 -0.691541 0.720176 0.000000 
0.825174 0.519814 -0.070005 99 95 70 0.285988 0.899455 -0.330442 0.000000 
0.875343 0.589418 0.009394 144 127 92 0.735535 -0.671194 0.092125 0.000000 
0.866774 0.554837 -0.042688 99 87 51 -0.929289 0.368355 0.027142 0.000000 
0.778657 0.306062 -0.362082 76 66 45 0.912671 0.404586 0.057798 0.000000 
0.777884 0.319085 -0.348620 54 46 27 -0.924230 0.272841 -0.267127 0.000000 
0.874593 0.581942 -0.012777 100 89 56 -0.963049 0.114741 0.243663 0.000000 
0.796194 0.391829 -0.264749 50 42 17 0.309893 -0.796186 0.519667 0.000000 
0.797984 0.226294 -0.514004 121 109 73 -0.974070 -0.225336 0.020268 0.000000 
0.875499 0.583558 -0.002006 80 74 51 -0.881656 0.471891 -0.001322 0.000000 
0.840722 0.474079 -0.172550 80 71 41 0.617510 0.607414 -0.499729 0.000000 
0.922918 0.851960 0.334804 116 112 99 -0.923180 -0.205624 0.324744 0.000000 
0.825486 0.407243 -0.242553 110 96 58 0.844129 -0.468961 0.259850 0.000000 
0.887339 0.658812 0.103246 153 134 97 -0.601072 0.709167 -0.368505 0.000000 
0.795402 0.196925 -0.523747 136 125 88 0.334026 -0.656645 0.676198 0.000000 
0.783276 0.323899 -0.407482 75 69 51 -0.890444 0.351688 -0.288833 0.000000 
0.872399 0.573284 -0.012200 132 113 76 -0.767244 0.599166 -0.228772 0.000000 
0.849505 0.522350 -0.070473 151 138 104 -0.015221 -0.798410 0.601921 0.000000 
0.886042 0.740341 0.166412 74 69 50 -0.337672 -0.670450 0.660662 0.000000 
0.878665 0.620976 0.054533 134 119 81 0.656617 -0.653326 0.376855 0.000000 
0.844428 0.484924 -0.120128 147 134 100 0.149288 -0.838080 0.524724 0.000000 
0.882279 0.701276 0.148710 100 92 71 0.789070 0.241234 -0.564955 0.000000 
0.813005 0.448418 -0.181729 161 148 113 0.139642 -0.674187 0.725239 0.000000 
0.783817 0.232584 -0.469879 126 119 100 -0.590736 -0.641226 0.489755 0.000000 
0.791333 0.277586 -0.395647 121 111 77 -0.604993 0.763628 -0.225511 0.000000 
0.835374 0.451944 -0.158837 105 101 87 -0.553222 -0.570140 0.607360 0.000000 
0.909744 0.745316 0.195253 67 59 36 -0.895616 -0.246405 0.370345 0.000000 
0.804071 0.334674 -0.350455 84 74 46 -0.833441 0.395451 -0.385998 0.000000 
0.782483 0.343697 -0.302003 142 130 98 -0.006853 0.812787 -0.582520 0.000000 
0.875604 0.619377 0.056250 146 133 101 0.268873 -0.903588 0.333520 0.000000 
0.844000 0.561191 -0.024925 162 151 127 -0.863587 -0.497302 0.083118 0.000000 
0.849798 0.492980 -0.139233 99 87 50 -0.977107 -0.210655 0.029754 0.000000 
0.878587 0.669535 0.118017 164 155 131 -0.012413 0.795782 -0.605456 0.000000 
0.784263 0.342783 -0.300907 117 109 83 -0.018097 -0.778154 0.627813 0.000000 
0.825303 0.434887 -0.191497 161 146 107 -0.390185 -0.574577 0.719456 0.000000 
0.838860 0.519971 -0.110599 56 47 19 0.136009 -0.757765 0.638196 0.000000 
0.823690 0.401626 -0.277619 90 79 47 0.922844 0.185134 -0.337764 0.000000 
0.914584 0.758880 0.215561 81 72 48 0.943164 0.105092 -0.315275 0.000000 
0.826944 0.410272 -0.251981 94 81 45 0.997768 -0.009443 -0.066098 0.000000 
0.843983 0.468945 -0.160355 116 99 63 -0.983285 0.178885 0.033906 0.000000 
0.859782 0.525157 -0.080095 105 91 53 -0.807250 0.544855 -0.226894 0.000000 
0.862152 0.647761 0.054068 60 52 25 0.627508 0.395711 -0.670556 0.000000 
0.841393 0.460360 -0.163661 103 89 50 -0.987917 -0.021600 -0.153474 0.000000 
0.880414 0.614810 0.040335 117 102 65 -0.794969 0.547227 -0.261854 0.000000 
0.799044 0.331527 -0.386221 92 79 40 -0.946521 0.189851 0.260874 0.000000 
0.875393 0.640133 0.086514 146 137 115 -0.114210 -0.737175 0.665979 0.000000 
0.910885 0.792892 0.267420 134 127 108 -0.150670 -0.562402 0.813021 0.000000 
0.914531 0.769808 0.237516 150 138 106 0.399991 -0.782169 0.477722 0.000000 
0.841153 0.458377 -0.161031 126 107 71 0.896092 -0.418748 0.147205 0.000000 
0.776603 0.342974 -0.302045 120 115 98 -0.833376 -0.261300 0.487038 0.000000 
0.793915 0.307489 -0.362108 117 104 69 0.788705 -0.409738 0.458323 0.000000 
0.834532 0.439303 -0.180202 101 95 76 0.400883 -0.855940 0.326588 0.000000 
0.924733 0.801029 0.270965 96 88 65 0.855349 -0.514884 0.057209 0.000000 
0.808708 0.359875 -0.316102 117 99 59 0.772128 -0.536782 0.340123 0.000000 
0.833718 0.535323 -0.091683 70 61 34 -0.321942 -0.780029 0.536570 0.000000 
0.811919 0.398864 -0.240032 130 112 75 0.547045 -0.763282 0.343719 0.000000 
0.837367 0.451451 -0.199648 84 74 41 0.945348 0.039656 -0.323644 0.000000 
0.780505 0.274493 -0.426591 49 35 11 -0.994694 0.097821 0.031874 0.000000 
0.851078 0.503666 -0.124681 88 77 44 0.826630 0.335376 -0.451891 0.000000 
0.852820 0.532677 -0.090670 70 62 39 -0.175067 -0.774861 0.607406 0.000000 
0.918206 0.814993 0.269161 87 71 42 -0.821447 -0.479047 0.309417 0.000000 
0.822734 0.405054 -0.238475 107 97 65 0.494853 -0.679374 0.541822 0.000000 
0.799716 0.329623 -0.376171 89 74 35 0.969813 -0.015584 -0.243352 0.000000 
0.801323 0.194478 -0.534708 130 117 79 0.944564 -0.060898 0.322629 0.000000 
0.868150 0.584192 -0.020913 59 53 30 -0.473690 -0.684591 0.554033 0.000000 
0.887058 0.723184 0.152088 61 54 32 -0.942412 0.024099 0.333586 0.000000 
0.809990 0.482725 -0.144896 122 115 91 -0.240399 -0.746336 0.620637 0.000000 
0.817825 0.427372 -0.198542 141 130 100 0.279072 -0.636284 0.719209 0.000000 
0.768509 0.261925 -0.484290 80 74 51 0.966793 0.100364 -0.235029 0.000000 
0.839207 0.588942 -0.012879 141 132 113 -0.722880 -0.483582 0.493552 0.000000 
0.824300 0.396483 -0.262976 103 90 51 -0.918250 0.309927 -0.246500 0.000000 
0.796160 0.341080 -0.389389 114 105 96 -0.386369 -0.854977 0.346025 0.000000 
0.794552 0.428319 -0.210081 104 98 73 0.970158 0.057938 -0.235451 0.000000 
0.798402 0.235547 -0.504560 128 118 88 0.992954 0.084916 0.082652 0.000000 
0.815389 0.373923 -0.305925 80 70 41 0.972248 -0.104125 -0.209504 0.000000 
0.866341 0.579493 -0.029835 81 71 39 -0.247950 -0.790634 0.559838 0.000000 
0.780397 0.232630 -0.481864 99 91 61 0.867314 0.396181 -0.301342 0.000000 
0.780656 0.249075 -0.513216 74 66 43 0.426405 0.854349 -0.297098 0.000000 
0.785219 0.302536 -0.440292 96 83 46 0.996634 -0.064124 0.051082 0.000000 
0.895255 0.684752 0.132080 155 142 110 0.612056 -0.500773 0.612056 0.000000 
0.816672 0.372911 -0.301990 107 92 56 0.969072 -0.139536 -0.203543 0.000000 
0.794932 0.279607 -0.411169 111 98 61 -0.975473 0.212587 0.057095 0.000000 
0.811599 0.487917 -0.138048 160 151 127 -0.700141 -0.553793 0.450684 0.000000 
0.928888 0.833724 0.313286 135 126 105 -0.169263 0.690778 -0.702977 0.000000 
0.758168 0.200297 -0.558631 81 76 57 -0.153087 -0.704808 0.692683 0.000000 
0.794143 0.327170 -0.332750 116 103 67 -0.834452 0.383312 -0.395931 0.000000 
0.803109 0.193321 -0.547026 123 110 70 0.905993 0.383360 -0.179476 0.000000 
0.841007 0.467636 -0.178084 82 73 43 0.885088 0.229797 -0.404739 0.000000 
0.802071 0.328290 -0.357958 108 90 52 0.916373 -0.321813 0.238113 0.000000 
0.874111 0.668590 0.118938 135 128 110 0.666405 0.538831 -0.515331 0.000000 
0.809735 0.384471 -0.266759 124 105 67 0.260906 -0.832120 0.489392 0.000000 
0.788949 0.311952 -0.345768 124 113 82 0.675460 -0.655928 0.336916 0.000000 
0.801717 0.198610 -0.530766 140 126 87 -0.899724 0.055639 -0.432899 0.000000 
0.778499 0.226210 -0.496293 80 68 37 -0.868749 -0.386280 0.309940 0.000000 
0.876537 0.591554 0.008822 127 110 74 -0.831841 0.520844 -0.191731 0.000000 
0.786230 0.262695 -0.480215 114 100 59 0.847414 0.517140 -0.120231 0.000000 
0.854584 0.596410 0.008093 106 99 71 -0.676518 -0.660294 0.326091 0.000000 
0.787671 0.312647 -0.428782 88 77 44 -0.938106 -0.198152 0.284065 0.000000 
0.763852 0.241022 -0.511824 91 84 60 -0.995102 0.042883 0.089064 0.000000 
0.836396 0.433756 -0.196639 132 120 88 -0.909570 0.384545 -0.157507 0.000000 
0.825892 0.548069 -0.078155 75 69 46 -0.325540 0.771354 -0.546843 0.000000 
0.810949 0.366490 -0.321698 105 91 57 0.905034 -0.381294 -0.188489 0.000000 
0.857657 0.622279 0.040970 144 134 115 0.751772 0.439219 -0.491859 0.000000 
0.845287 0.614115 0.017896 141 134 115 -0.843368 -0.309080 0.439545 0.000000 
0.811761 0.367313 -0.324233 79 70 43 -0.919967 0.359865 0.155428 0.000000 
0.825566 0.408979 -0.237561 112 99 63 -0.664105 0.610843 -0.431086 0.000000 
0.813496 0.376164 -0.319660 102 90 53 0.984091 0.036188 -0.173938 0.000000 
0.784306 0.319183 -0.333792 122 113 86 -0.172577 0.707106 -0.685725 0.000000 
0.844496 0.545650 -0.071737 55 46 20 0.233861 -0.797605 0.556000 0.000000 
0.875222 0.655070 0.101844 167 159 137 0.377551 0.841264 -0.386950 0.000000 
0.911312 0.803497 0.271307 111 104 80 0.873052 0.036774 -0.486239 0.000000 
0.770138 0.270153 -0.471279 106 96 63 0.934461 0.140922 -0.326993 0.000000 
0.774463 0.266948 -0.465877 63 55 27 0.884902 0.271011 -0.378816 0.000000 
0.784121 0.285682 -0.454542 83 73 43 -0.962979 -0.095914 0.251935 0.000000 
0.807538 0.439358 -0.190552 164 151 117 0.047074 -0.688997 0.723233 0.000000 
0.798267 0.307430 -0.382683 87 79 52 0.930700 -0.333282 0.150737 0.000000 
0.874997 0.611922 0.013177 88 81 56 -0.263785 -0.918204 -0.295497 0.000000 
0.912554 0.760503 0.215137 75 65 42 0.643676 0.424127 -0.637023 0.000000 
0.775250 0.336393 -0.320760 75 68 46 0.924182 -0.172495 0.340783 0.000000 
0.831674 0.420563 -0.219827 91 82 55 -0.704560 0.682976 -0.192713 0.000000 
0.778008 0.354546 -0.300900 62 55 34 0.867574 -0.354707 0.348565 0.000000 
0.818357 0.388989 -0.265286 124 110 72 0.303486 -0.854997 0.420566 0.000000 
0.930649 0.826478 0.299399 145 132 106 -0.944402 0.308567 -0.113542 0.000000 
0.877401 0.601217 0.021654 137 120 85 0.807313 -0.507138 0.301755 0.000000 
0.790756 0.291746 -0.371230 119 114 105 0.781199 -0.510598 0.359190 0.000000 
0.780863 0.297809 -0.419651 59 50 24 0.888694 0.235897 -0.393162 0.000000 
0.928610 0.831386 0.293437 124 114 88 -0.748539 -0.465575 0.472155 0.000000 
0.821421 0.409500 -0.275495 84 78 49 0.645280 0.611759 -0.457563 0.000000 
0.841349 0.461899 -0.171217 98 85 48 -0.996496 0.076654 -0.033468 0.000000 
0.857255 0.533323 -0.058462 134 122 88 0.361479 -0.760240 0.539786 0.000000 
0.790547 0.330852 -0.324204 113 103 71 0.622400 -0.568425 0.538064 0.000000 
0.843057 0.464506 -0.146929 102 95 79 0.804885 -0.435377 0.403246 0.000000 
0.785460 0.380154 -0.272774 62 49 20 -0.535563 0.702406 -0.468827 0.000000 
0.854606 0.544453 -0.041166 166 149 112 -0.206720 -0.707202 0.676116 0.000000 
0.794892 0.315520 -0.352864 136 120 79 0.867103 -0.440314 0.232931 0.000000 
0.792849 0.199421 -0.562684 104 92 57 -0.942074 -0.333625 0.034513 0.000000 
0.903560 0.762993 0.231298 143 133 110 0.104928 -0.521766 0.846611 0.000000 
0.922279 0.825927 0.286409 78 72 57 -0.445483 -0.662386 0.602320 0.000000 
0.863097 0.683999 0.096226 99 89 68 0.835462 -0.516330 0.188167 0.000000 
0.892951 0.711329 0.172059 145 136 112 -0.195240 -0.928441 0.316035 0.000000 
0.781424 0.261461 -0.499850 101 94 69 0.471110 0.714156 -0.517722 0.000000 
0.861360 0.529493 -0.079603 104 91 55 0.994023 -0.088532 0.063877 0.000000 
0.797786 0.334070 -0.335271 126 108 67 -0.881457 0.402567 -0.246928 0.000000 
0.863495 0.644778 0.064970 102 95 70 -0.679723 -0.401880 0.613570 0.000000 
0.802064 0.467726 -0.173946 62 57 32 -0.633999 0.660485 -0.402250 0.000000 
0.867179 0.602586 0.037257 151 140 116 -0.127058 -0.721991 0.680136 0.000000 
0.856399 0.546141 -0.038162 166 149 111 -0.093370 -0.831715 0.547295 0.000000 
0.843097 0.501009 -0.096968 144 134 108 0.295452 0.576531 -0.761787 0.000000 
0.800668 0.282057 -0.397904 85 80 66 -0.917054 0.386776 -0.097036 0.000000 
0.959221 0.910983 0.410722 150 137 128 -0.411146 -0.291929 0.863560 0.000000 
0.813802 0.401140 -0.290570 81 73 45 -0.251685 0.899297 -0.357658 0.000000 
0.847870 0.567889 -0.019666 119 109 77 -0.626887 -0.542401 0.559298 0.000000 
0.929108 0.847871 0.330599 117 110 94 0.163019 0.890115 -0.425582 0.000000 
0.932857 0.861352 0.348114 129 119 107 -0.573091 -0.617045 0.539280 0.000000 
0.762836 0.213427 -0.543040 71 62 35 -0.156514 -0.824310 0.544074 0.000000 
0.933450 0.844517 0.323646 119 110 86 0.739605 -0.436515 0.512288 0.000000 
0.792149 0.349025 -0.352513 52 49 31 0.963757 -0.139166 -0.227608 0.000000 
0.847465 0.481467 -0.147327 84 75 47 -0.999225 0.027842 0.027842 0.000000 
0.800184 0.332602 -0.345376 128 108 65 0.839882 -0.468664 0.273774 0.000000 
0.791714 0.334415 -0.399627 70 65 45 -0.099289 -0.836039 0.539612 0.000000 
0.924700 0.840797 0.313412 127 117 106 0.489683 -0.821353 0.292558 0.000000 
0.847397 0.477273 -0.157373 109 96 63 -0.960793 -0.175289 0.214828 0.000000 
0.816238 0.390464 -0.260229 115 101 65 0.472033 -0.780233 0.410393 0.000000 
0.789358 0.334145 -0.348624 43 33 9 0.868637 -0.444036 0.219776 0.000000 
0.843379 0.467969 -0.162078 89 78 48 0.891965 -0.451947 0.011928 0.000000 
0.894184 0.662216 0.090612 142 131 103 0.989830 0.141723 -0.012275 0.000000 
0.852590 0.624977 0.021455 60 54 28 -0.789259 -0.503133 0.352032 0.000000 
0.815093 0.403792 -0.233256 117 104 68 0.442581 -0.751894 0.488649 0.000000 
0.851898 0.492499 -0.115690 99 90 68 -0.909484 0.412425 0.052393 0.000000 
0.940878 0.883753 0.366296 104 96 74 0.364385 0.589880 -0.720601 0.000000 
0.768931 0.247692 -0.516075 71 59 30 -0.539808 0.709225 -0.453439 0.000000 
0.877112 0.625992 0.067332 117 110 95 0.608906 -0.504329 0.612279 0.000000 
0.896691 0.743174 0.209733 134 129 111 0.095249 -0.754666 0.649159 0.000000 
0.867307 0.566529 -0.013302 130 118 85 0.301855 -0.846742 0.438077 0.000000 
0.840395 0.522460 -0.105571 62 54 26 0.069634 -0.828497 0.555647 0.000000 
0.823308 0.466478 -0.179502 51 45 19 -0.450353 0.782021 -0.430843 0.000000 
0.828118 0.435805 -0.180819 144 136 103 0.320362 0.481332 -0.815897 0.000000 
0.795717 0.229222 -0.489329 120 108 70 0.985126 0.026563 0.169770 0.000000 
0.892199 0.692218 0.122772 82 70 36 -0.225699 -0.770491 0.596157 0.000000 
0.878223 0.597124 0.009937 100 89 54 -0.958464 0.264000 -0.107941 0.000000 
0.926729 0.835100 0.300575 74 66 41 0.697349 0.496673 -0.516740 0.000000 
0.832110 0.465366 -0.191864 106 97 90 0.553364 0.811095 -0.189508 0.000000 
0.869908 0.681647 0.093534 70 65 43 -0.773786 -0.273752 0.571240 0.000000 
0.797162 0.217977 -0.502237 123 110 72 -0.991782 0.023375 -0.125782 0.000000 
0.797914 0.216503 -0.508789 103 95 68 0.981869 0.024518 0.187968 0.000000 
