ply
format ascii 1.0
comment Created by Open3D
obj_info Generated by CloudCompare!
element vertex 629
property float x
property float y
property float z
property uchar red
property uchar green
property uchar blue
property float nx
property float ny
property float nz
property float scalar_stem3
end_header
0.365648 0.776460 -1.511892 42 36 14 0.924733 -0.326127 -0.196241 0.000000 
0.404148 0.778161 -1.366758 24 30 16 -0.941197 0.319980 0.108445 0.000000 
0.364068 0.777126 -1.482697 66 63 48 0.836312 -0.294344 -0.462541 0.000000 
0.353561 0.788207 -1.670183 110 104 85 -0.961811 0.219130 0.164020 0.000000 
0.377748 0.796578 -1.465768 61 65 55 0.178286 -0.976207 -0.123428 0.000000 
0.361082 0.767404 -1.549814 86 72 40 0.166563 -0.955403 -0.243848 0.000000 
0.376866 0.786714 -1.415405 50 50 32 0.899028 -0.381539 -0.214890 0.000000 
0.404640 0.782636 -1.369850 42 48 33 -0.977562 0.117704 0.174697 0.000000 
0.368670 0.763080 -1.514139 93 83 56 0.815340 -0.578850 -0.012374 0.000000 
0.398783 0.772566 -1.386336 34 35 17 0.904878 -0.419001 -0.075065 0.000000 
0.393896 0.791600 -1.425941 138 135 127 -0.732020 -0.676937 -0.076826 0.000000 
0.385368 0.788054 -1.382849 50 53 39 -0.706380 0.700481 0.101754 0.000000 
0.373298 0.775901 -1.422627 51 51 37 0.835380 0.451261 -0.313853 0.000000 
0.248870 0.763349 -2.131110 44 46 38 0.851642 0.012186 -0.523983 0.000000 
0.351368 0.782469 -1.672610 91 85 63 -0.860658 0.495704 0.116383 0.000000 
0.397391 0.776988 -1.401409 34 38 23 -0.971709 0.218853 0.088792 0.000000 
0.382327 0.790821 -1.409242 57 60 48 0.523641 -0.840466 -0.139344 0.000000 
0.380091 0.797439 -1.476715 79 80 73 -0.464203 -0.882679 -0.073441 0.000000 
0.385551 0.776945 -1.462482 50 52 39 -0.702612 0.621102 0.347230 0.000000 
0.395588 0.787766 -1.425940 57 62 49 -0.964202 -0.250261 0.087655 0.000000 
0.381490 0.772810 -1.448510 35 34 17 -0.313330 0.928749 0.198114 0.000000 
0.375749 0.795106 -1.459428 69 72 63 0.206581 -0.968749 -0.137293 0.000000 
0.371265 0.799585 -1.497077 68 72 64 0.158794 -0.986380 -0.042886 0.000000 
0.402856 0.773168 -1.357615 34 34 16 0.746082 -0.662705 -0.064689 0.000000 
0.367786 0.792881 -1.567218 107 100 79 0.604149 0.795674 -0.043656 0.000000 
0.386656 0.783642 -1.358998 37 38 23 -0.826491 0.322725 0.461261 0.000000 
0.354974 0.790420 -1.605002 71 63 35 -0.090305 -0.546133 -0.832817 0.000000 
0.370739 0.786250 -1.562031 98 91 67 0.889997 0.437166 0.129583 0.000000 
0.373800 0.793011 -1.450407 49 51 42 -0.463349 0.866004 0.188004 0.000000 
0.386321 0.783810 -1.362851 26 28 21 -0.940783 0.242470 0.236928 0.000000 
0.376663 0.783783 -1.411788 47 50 37 -0.899585 0.432832 0.058344 0.000000 
0.397898 0.778017 -1.411733 36 40 22 -0.940891 0.330299 0.075008 0.000000 
0.371997 0.795796 -1.536339 79 79 68 -0.952728 -0.159458 0.258617 0.000000 
0.392137 0.790316 -1.367552 64 70 59 0.171192 -0.979121 0.109612 0.000000 
0.362214 0.790978 -1.476589 63 64 51 0.919106 -0.287130 -0.269816 0.000000 
0.376798 0.793750 -1.443378 67 69 60 -0.221544 0.975029 0.015401 0.000000 
0.401326 0.788209 -1.379810 69 75 61 0.852408 0.522792 0.009456 0.000000 
0.372362 0.791598 -1.431785 50 52 42 -0.682772 0.692190 0.233869 0.000000 
0.399307 0.776924 -1.393859 24 29 15 0.949169 -0.238314 -0.205631 0.000000 
0.387090 0.766569 -1.386265 39 37 27 -0.409607 -0.904490 -0.118828 0.000000 
0.362048 0.766218 -1.545341 86 72 39 0.200771 -0.946493 -0.252671 0.000000 
0.391654 0.762331 -1.375005 60 56 31 0.376247 -0.885904 -0.271317 0.000000 
0.356458 0.798410 -1.503016 86 84 72 0.699115 -0.670708 -0.247768 0.000000 
0.359161 0.793355 -1.494194 59 62 48 0.816163 -0.464341 -0.343898 0.000000 
0.370208 0.761894 -1.533406 86 83 69 -0.321408 0.930832 0.173922 0.000000 
0.370525 0.787034 -1.523383 54 52 33 0.769200 -0.626370 -0.126464 0.000000 
0.385914 0.770635 -1.436515 31 29 12 -0.452592 0.880759 0.139370 0.000000 
0.368496 0.771793 -1.572408 91 83 59 0.011294 0.999050 0.042098 0.000000 
0.397779 0.792514 -1.327112 48 49 37 0.595693 -0.803011 0.017968 0.000000 
0.388323 0.789201 -1.363160 33 36 27 0.757878 -0.596493 -0.264229 0.000000 
0.395475 0.784197 -1.431944 49 53 39 -0.958126 0.099832 0.268379 0.000000 
0.367187 0.797033 -1.484802 56 58 48 0.428295 -0.884364 -0.185643 0.000000 
0.385514 0.769791 -1.429404 27 25 9 0.387120 -0.900379 -0.198634 0.000000 
0.351252 0.782631 -1.673576 91 85 63 0.868614 -0.457243 -0.190888 0.000000 
0.398040 0.769183 -1.355704 34 30 9 0.723027 -0.647416 0.241009 0.000000 
0.367732 0.792343 -1.567350 106 99 77 0.630753 0.772204 -0.076499 0.000000 
0.371877 0.774902 -1.439359 51 51 41 0.808950 0.580303 0.094064 0.000000 
0.392135 0.763386 -1.385084 74 67 41 -0.006004 0.966714 0.255789 0.000000 
0.368319 0.779986 -1.438636 56 55 46 -0.981707 -0.189371 0.019750 0.000000 
0.377471 0.771826 -1.413378 71 69 48 0.722974 0.688615 -0.055834 0.000000 
0.388406 0.781687 -1.354475 31 31 18 -0.960424 0.274228 0.048835 0.000000 
0.369113 0.763956 -1.524744 95 84 56 -0.782031 0.622547 0.029379 0.000000 
0.389769 0.788916 -1.456331 54 57 45 -0.979557 -0.149466 0.134643 0.000000 
0.381066 0.778855 -1.371614 45 44 28 0.898308 -0.006557 -0.439318 0.000000 
0.401372 0.772465 -1.362110 26 28 12 -0.820769 0.565801 0.078782 0.000000 
0.399380 0.770991 -1.376918 25 27 12 0.899951 -0.404906 -0.161676 0.000000 
0.384796 0.784156 -1.484095 91 85 73 0.947750 -0.256994 -0.189006 0.000000 
0.375158 0.773166 -1.415563 92 89 69 -0.750666 -0.619573 -0.229413 0.000000 
0.391897 0.771762 -1.422936 33 33 16 0.584908 -0.775198 -0.238643 0.000000 
0.387954 0.767601 -1.397554 31 29 8 -0.076860 -0.994724 -0.067949 0.000000 
0.373305 0.795992 -1.454439 60 60 50 0.325455 -0.932048 -0.159265 0.000000 
0.363542 0.794636 -1.466891 50 53 46 -0.793978 0.478319 0.375247 0.000000 
0.348409 0.781138 -1.718091 99 100 94 -0.845664 0.514433 0.142165 0.000000 
0.385703 0.776025 -1.449220 42 43 29 0.775022 -0.629972 -0.049772 0.000000 
0.388238 0.788070 -1.366127 51 54 39 -0.680389 0.677187 0.280160 0.000000 
0.398733 0.767120 -1.360739 27 25 6 0.726084 -0.657965 0.199712 0.000000 
0.386773 0.773778 -1.443772 42 41 24 0.776882 -0.532397 -0.336166 0.000000 
0.384177 0.778444 -1.469345 49 52 39 0.831050 -0.475554 -0.288451 0.000000 
0.378393 0.786016 -1.407200 48 49 33 0.833413 -0.550473 -0.049024 0.000000 
0.370258 0.793236 -1.452368 48 48 38 -0.513672 0.822183 0.245267 0.000000 
0.366585 0.782248 -1.464481 44 44 32 -0.920197 -0.391437 -0.003850 0.000000 
0.388484 0.766506 -1.377650 47 45 33 -0.352994 -0.872551 -0.337712 0.000000 
0.375472 0.781305 -1.416407 44 46 33 0.953464 -0.229961 -0.194996 0.000000 
0.375152 0.780016 -1.410919 45 48 35 0.928512 -0.303851 -0.213402 0.000000 
0.350820 0.790435 -1.679742 109 105 91 0.987696 0.007866 -0.156189 0.000000 
0.392135 0.763386 -1.385084 74 67 41 0.006004 -0.966714 -0.255789 0.000000 
0.388773 0.767175 -1.411348 23 27 13 -0.059649 0.996686 0.055311 0.000000 
0.388072 0.775257 -1.440035 42 43 28 0.821216 -0.460451 -0.337031 0.000000 
0.350802 0.773630 -1.689476 106 105 93 -0.412964 0.908521 0.063637 0.000000 
0.380357 0.782259 -1.380634 35 38 27 0.883188 -0.452295 -0.124131 0.000000 
0.381512 0.782895 -1.382220 45 48 35 0.884227 -0.456874 -0.096998 0.000000 
0.386560 0.774829 -1.364919 25 26 15 -0.943402 0.066547 0.324906 0.000000 
0.378721 0.779717 -1.395009 48 49 37 -0.962429 0.072087 0.261791 0.000000 
0.378797 0.773783 -1.395149 47 47 36 0.878391 0.441395 -0.183304 0.000000 
0.365219 0.762007 -1.535235 86 78 55 0.320624 -0.912546 -0.253888 0.000000 
0.362786 0.795575 -1.484812 58 59 43 0.716491 -0.653503 -0.244079 0.000000 
0.376949 0.776015 -1.397635 53 54 41 0.969809 0.083842 -0.229000 0.000000 
0.379862 0.793157 -1.503373 64 68 57 -0.959940 -0.148390 0.237687 0.000000 
0.363226 0.786758 -1.605053 96 85 60 0.975218 -0.167360 -0.144710 0.000000 
0.387236 0.781606 -1.360178 30 31 21 0.926036 -0.065289 -0.371747 0.000000 
0.360423 0.798706 -1.503519 52 53 43 0.469022 -0.882306 -0.039425 0.000000 
0.379096 0.774344 -1.376570 41 41 28 0.921439 0.338286 -0.191082 0.000000 
0.387246 0.767186 -1.363282 47 46 31 0.986158 0.057321 0.155586 0.000000 
0.369959 0.777104 -1.436733 54 53 42 0.862694 0.493581 0.110162 0.000000 
0.360419 0.797624 -1.521378 57 59 42 -0.509616 0.855070 0.095642 0.000000 
0.402968 0.775500 -1.371320 33 36 19 0.846655 -0.510938 -0.148717 0.000000 
0.367332 0.795567 -1.467130 56 58 49 -0.423881 0.855469 0.297487 0.000000 
0.387176 0.766591 -1.414892 87 83 67 0.000983 -0.999976 -0.006883 0.000000 
0.382795 0.777231 -1.583920 127 121 105 -0.969574 0.236512 0.063152 0.000000 
0.384168 0.791593 -1.410771 62 67 56 0.434367 -0.876146 -0.209030 0.000000 
0.397325 0.788163 -1.377667 77 83 75 -0.557975 -0.829348 -0.029076 0.000000 
0.366372 0.759400 -1.516937 86 77 56 -0.582589 0.801987 0.131935 0.000000 
0.401638 0.776485 -1.376345 25 30 14 0.887226 -0.398437 -0.232545 0.000000 
0.373859 0.805408 -1.526630 102 101 93 -0.188376 -0.981661 0.029251 0.000000 
0.392014 0.765615 -1.393137 59 51 25 -0.386064 0.916386 0.105790 0.000000 
0.395814 0.764443 -1.375442 27 26 5 -0.718192 0.678881 0.152710 0.000000 
0.383473 0.774119 -1.370586 25 26 15 0.833153 0.247944 -0.494348 0.000000 
0.397251 0.777325 -1.402719 35 38 22 0.970442 -0.222210 -0.094157 0.000000 
0.379982 0.768359 -1.417418 68 65 51 0.550473 0.833413 -0.049024 0.000000 
0.398045 0.781667 -1.406426 32 36 20 0.998603 0.047055 -0.024050 0.000000 
0.397997 0.791150 -1.350980 63 69 60 -0.048117 0.984642 -0.167823 0.000000 
0.389281 0.769585 -1.417007 30 28 10 -0.265963 0.949097 0.168758 0.000000 
0.402410 0.767084 -1.361840 67 61 39 -0.854472 0.514928 -0.068751 0.000000 
0.375570 0.791855 -1.429798 46 48 37 -0.499287 0.835198 0.230557 0.000000 
0.387447 0.788721 -1.366402 35 38 29 -0.673314 0.679742 0.290859 0.000000 
0.396298 0.771653 -1.405876 32 34 17 0.877136 -0.476554 -0.059397 0.000000 
0.369166 0.797827 -1.550698 93 92 82 -0.755092 -0.599958 0.264361 0.000000 
0.361550 0.782567 -1.622680 106 99 83 -0.791509 0.600607 0.113073 0.000000 
0.378385 0.789175 -1.509688 61 63 47 -0.923319 0.314412 0.220515 0.000000 
0.362719 0.786843 -1.469334 63 63 53 0.964749 0.256516 -0.058811 0.000000 
0.349737 0.777429 -1.658377 84 76 51 0.554500 -0.823703 -0.118508 0.000000 
0.395399 0.782101 -1.436005 88 80 60 0.890830 -0.263233 -0.370311 0.000000 
0.377908 0.781160 -1.397970 46 48 36 -0.933087 0.182168 0.310102 0.000000 
0.395147 0.759146 -1.383907 73 67 41 0.952774 -0.303658 -0.003688 0.000000 
0.374289 0.780078 -1.409731 35 38 29 0.910504 -0.284989 -0.299604 0.000000 
0.356957 0.771303 -1.562182 91 79 53 0.134212 -0.952774 -0.272411 0.000000 
0.353881 0.778415 -1.632572 91 82 57 0.521280 -0.840251 -0.149148 0.000000 
0.371117 0.779214 -1.587427 107 100 83 -0.006910 -0.775292 -0.631566 0.000000 
0.393692 0.767483 -1.404097 53 47 23 0.541790 -0.836272 -0.084342 0.000000 
0.399703 0.769156 -1.371532 31 31 13 -0.900145 0.380774 0.211541 0.000000 
0.364774 0.798836 -1.516176 63 65 52 0.213496 -0.975811 -0.047042 0.000000 
0.398606 0.768145 -1.381110 36 34 12 0.898431 -0.406810 -0.165311 0.000000 
0.375488 0.780351 -1.404457 38 41 31 -0.984454 -0.021928 0.174270 0.000000 
0.402678 0.775131 -1.365320 33 35 18 0.874707 -0.481981 -0.050807 0.000000 
0.349043 0.781332 -1.694868 94 87 63 -0.922704 0.375314 0.088070 0.000000 
0.385626 0.772423 -1.442990 37 37 21 0.605837 -0.719532 -0.339463 0.000000 
0.361415 0.780178 -1.490507 56 53 38 0.659666 -0.064673 -0.748771 0.000000 
0.386623 0.794908 -1.434222 119 112 101 -0.157905 -0.969254 -0.188716 0.000000 
0.385343 0.780838 -1.365809 36 37 23 -0.929890 -0.090163 0.356615 0.000000 
0.371157 0.778262 -1.437437 36 38 29 0.920672 0.388961 0.032741 0.000000 
0.377149 0.769421 -1.437028 66 64 54 0.458658 0.878495 0.133715 0.000000 
0.351500 0.781607 -1.669816 90 84 62 0.841230 -0.482673 -0.243635 0.000000 
0.379096 0.774344 -1.376570 41 41 28 -0.921439 -0.338286 0.191082 0.000000 
0.391902 0.786741 -1.337969 40 40 27 0.671075 -0.728124 -0.139620 0.000000 
0.368864 0.766482 -1.539315 92 80 50 0.394495 -0.846683 -0.357073 0.000000 
0.371388 0.776145 -1.428603 50 51 39 0.936337 0.272110 -0.221874 0.000000 
0.374521 0.796129 -1.464183 68 70 56 0.160236 -0.970389 -0.180746 0.000000 
0.259830 0.751122 -2.127878 64 66 59 0.162477 0.980972 -0.106282 0.000000 
0.369390 0.799827 -1.534774 114 116 114 0.334290 0.931335 -0.144446 0.000000 
0.364736 0.768589 -1.557161 89 77 52 0.062908 -0.951325 -0.301702 0.000000 
0.360852 0.794395 -1.490224 57 58 40 0.847115 -0.497512 -0.186754 0.000000 
0.360161 0.779261 -1.490915 51 49 36 -0.454999 -0.036454 0.889746 0.000000 
0.394665 0.769795 -1.401024 31 32 16 0.648597 -0.760666 -0.026616 0.000000 
0.365828 0.759891 -1.503418 95 83 56 0.644128 -0.758574 -0.098307 0.000000 
0.355758 0.774349 -1.589088 95 84 53 0.608899 -0.781594 -0.135476 0.000000 
0.351279 0.794996 -1.576826 56 54 33 0.389866 -0.920189 -0.035442 0.000000 
0.357254 0.795607 -1.517997 57 59 44 0.509765 -0.860313 -0.001338 0.000000 
0.388193 0.779157 -1.444515 46 48 33 0.866725 -0.454993 -0.204374 0.000000 
0.382619 0.767050 -1.408619 30 33 22 -0.117476 -0.992389 -0.036921 0.000000 
0.384804 0.768094 -1.423680 26 24 7 0.134979 -0.990224 -0.035163 0.000000 
0.370227 0.767031 -1.517611 87 78 54 -0.800942 0.598277 0.023598 0.000000 
0.397739 0.764920 -1.369849 24 25 8 0.795964 -0.586105 -0.151398 0.000000 
0.364529 0.792808 -1.606924 104 94 73 0.966280 0.180771 -0.183372 0.000000 
0.372534 0.778027 -1.543234 82 74 49 -0.937861 -0.187018 -0.292302 0.000000 
0.356088 0.798740 -1.586162 77 73 58 -0.119770 0.989554 -0.080234 0.000000 
0.393281 0.795797 -1.352138 96 94 82 0.228127 -0.973420 -0.020304 0.000000 
0.371486 0.773264 -1.436388 106 101 86 -0.729391 -0.680088 -0.073954 0.000000 
0.372317 0.802183 -1.514003 106 99 89 0.179956 0.983372 -0.024381 0.000000 
0.403677 0.774202 -1.354401 26 28 14 -0.716419 0.686630 0.123623 0.000000 
0.380186 0.791745 -1.502772 70 74 62 0.948635 -0.208237 -0.238179 0.000000 
0.369409 0.784302 -1.432184 62 62 51 0.982764 -0.075413 -0.168782 0.000000 
0.392897 0.793924 -1.377548 113 110 96 -0.038536 -0.998801 0.030204 0.000000 
0.371154 0.767873 -1.527786 100 90 64 0.907236 -0.413372 -0.077763 0.000000 
0.362182 0.801028 -1.539745 77 75 66 -0.405794 0.913367 0.033045 0.000000 
0.387753 0.778190 -1.361077 28 29 19 0.970124 0.091616 -0.224647 0.000000 
0.379093 0.772074 -1.470918 50 42 19 -0.483003 0.874848 0.036735 0.000000 
0.349644 0.787794 -1.696570 113 108 92 0.986600 0.003375 -0.163121 0.000000 
0.386747 0.792209 -1.420430 87 90 82 -0.135565 0.989966 0.039872 0.000000 
0.377034 0.785182 -1.415553 48 50 36 -0.889372 0.420669 0.179039 0.000000 
0.399901 0.790004 -1.353888 69 75 64 0.206221 0.966256 -0.154342 0.000000 
0.373009 0.810376 -1.497113 102 104 96 0.053428 -0.998373 -0.019905 0.000000 
0.388752 0.779950 -1.454853 47 48 35 0.909164 -0.396446 0.127479 0.000000 
0.370176 0.790785 -1.573052 127 121 104 -0.675831 -0.715676 -0.176237 0.000000 
0.386897 0.759410 -1.376351 103 94 80 0.682932 -0.449166 -0.576068 0.000000 
0.347999 0.781377 -1.703082 94 87 65 0.877668 -0.461099 -0.130717 0.000000 
0.386453 0.777946 -1.350710 31 30 15 0.993265 0.014236 0.114987 0.000000 
0.382982 0.793104 -1.422438 73 74 65 -0.215422 0.972511 0.088410 0.000000 
0.365054 0.794688 -1.467868 64 66 54 -0.692967 0.583289 0.423757 0.000000 
0.386551 0.782252 -1.347702 31 31 22 0.764943 -0.584397 0.270818 0.000000 
0.405561 0.775657 -1.347618 25 28 13 -0.727629 0.685731 -0.018156 0.000000 
0.399667 0.791679 -1.397329 150 143 130 -0.693395 -0.719024 0.046986 0.000000 
0.389071 0.764053 -1.381043 32 34 18 0.060641 -0.909612 -0.411010 0.000000 
0.378377 0.798203 -1.477478 85 91 84 0.238933 0.967110 0.087230 0.000000 
0.364265 0.772871 -1.574364 90 77 47 0.115378 0.960616 0.252794 0.000000 
0.365951 0.778284 -1.522341 53 44 18 0.984919 0.001131 0.173011 0.000000 
0.376406 0.793413 -1.441193 60 64 51 0.259411 -0.965109 -0.035654 0.000000 
0.376572 0.780343 -1.398977 49 51 37 -0.969441 0.020473 0.244468 0.000000 
0.385091 0.786535 -1.468347 53 56 41 0.955429 -0.100366 -0.277635 0.000000 
0.356547 0.774682 -1.606505 92 86 69 0.639561 -0.764283 0.082664 0.000000 
0.377287 0.778975 -1.398942 39 41 30 0.972600 0.032541 -0.230194 0.000000 
0.352687 0.778318 -1.653715 86 79 56 0.614527 -0.778202 -0.129452 0.000000 
0.376369 0.776495 -1.562437 114 105 80 0.749632 -0.603826 0.271009 0.000000 
0.393275 0.791912 -1.434850 78 82 73 0.762074 0.644831 0.058621 0.000000 
0.363326 0.787928 -1.616092 116 107 85 -0.976572 0.208834 0.051907 0.000000 
0.389902 0.765372 -1.391721 25 28 14 -0.082146 0.995608 0.044906 0.000000 
0.353201 0.783843 -1.658620 94 86 61 0.936916 -0.318688 -0.143615 0.000000 
0.373366 0.789899 -1.529490 63 62 46 0.883164 -0.418652 -0.211545 0.000000 
0.363130 0.788304 -1.474361 46 46 33 -0.991695 -0.117004 0.053390 0.000000 
0.349491 0.782446 -1.691889 93 87 65 -0.946308 0.322174 0.026532 0.000000 
0.398915 0.771724 -1.347672 31 29 10 0.489623 -0.870897 0.042516 0.000000 
0.350401 0.781255 -1.695865 104 100 86 0.923910 -0.368748 -0.102052 0.000000 
0.362315 0.795847 -1.488655 57 60 48 0.714566 -0.681189 -0.159298 0.000000 
0.356926 0.780368 -1.631418 92 83 58 0.715327 -0.691825 -0.098413 0.000000 
0.350479 0.784729 -1.680693 94 89 68 0.945716 -0.316978 -0.071744 0.000000 
0.395958 0.763165 -1.368602 30 31 12 0.667534 -0.743743 -0.035282 0.000000 
0.387736 0.776344 -1.358581 31 30 18 0.974318 -0.008247 -0.225024 0.000000 
0.381645 0.794436 -1.492455 64 68 55 0.894515 0.398373 -0.202835 0.000000 
0.360729 0.799567 -1.533241 60 60 49 -0.396984 0.917618 0.019524 0.000000 
0.361630 0.779167 -1.602970 93 85 67 -0.813827 0.577233 0.066988 0.000000 
0.375318 0.779021 -1.416486 50 51 38 0.972305 -0.223618 0.067950 0.000000 
0.380489 0.780738 -1.375666 44 46 32 0.879538 -0.392409 -0.269124 0.000000 
0.395286 0.791369 -1.354508 59 65 55 0.123342 -0.985543 0.116158 0.000000 
0.363871 0.788532 -1.464624 46 47 35 0.986790 0.064381 -0.148662 0.000000 
0.369458 0.778044 -1.453722 47 45 34 0.811487 0.545576 -0.209367 0.000000 
0.354536 0.774908 -1.628338 98 85 61 -0.605463 0.793512 0.061259 0.000000 
0.352124 0.782174 -1.665452 97 86 56 0.884348 -0.426775 -0.189189 0.000000 
0.370515 0.774447 -1.411428 93 93 86 0.765895 0.478480 -0.429489 0.000000 
0.358752 0.799392 -1.599374 95 89 73 0.266887 -0.950868 0.156913 0.000000 
0.397579 0.781861 -1.403527 34 39 27 0.983514 0.031426 -0.178080 0.000000 
0.361986 0.783227 -1.607991 98 89 64 -0.937114 0.328598 0.117646 0.000000 
0.359958 0.775610 -1.585552 92 83 62 0.232697 -0.963288 -0.133898 0.000000 
0.398162 0.767136 -1.376985 33 31 8 -0.842365 0.525205 0.120753 0.000000 
0.390030 0.767772 -1.397449 26 25 7 0.420773 -0.899245 -0.119618 0.000000 
0.398720 0.773076 -1.384637 25 28 12 0.908186 -0.409574 -0.086298 0.000000 
0.383749 0.778396 -1.469470 49 52 39 -0.831050 0.475554 0.288451 0.000000 
0.363522 0.760498 -1.525412 77 70 48 0.248578 -0.949487 -0.191527 0.000000 
0.367152 0.759231 -1.509558 93 81 53 -0.824426 0.564081 0.046190 0.000000 
0.377282 0.777425 -1.588771 123 114 94 0.185203 -0.769892 -0.610710 0.000000 
0.363979 0.765979 -1.549023 86 79 59 -0.163700 0.962554 0.216084 0.000000 
0.383735 0.767481 -1.411621 68 65 56 -0.019944 0.998252 -0.055633 0.000000 
0.399774 0.771472 -1.351032 29 28 9 0.499326 -0.827057 0.258166 0.000000 
0.361550 0.782567 -1.622680 106 99 83 -0.791509 0.600607 0.113073 0.000000 
0.381414 0.789480 -1.406635 51 54 43 0.625868 -0.779928 0.001376 0.000000 
0.362988 0.798452 -1.499803 54 56 45 0.392082 -0.903367 -0.173780 0.000000 
0.383734 0.795725 -1.481846 66 69 57 -0.823966 -0.560297 0.084546 0.000000 
0.399750 0.770245 -1.359882 32 30 10 0.811815 -0.571060 0.121846 0.000000 
0.380652 0.769607 -1.392714 52 53 44 0.806474 0.565286 -0.173354 0.000000 
0.364470 0.776323 -1.431529 73 72 57 -0.750244 0.660829 -0.020957 0.000000 
0.386772 0.787319 -1.468034 65 64 45 0.939409 -0.117258 -0.322121 0.000000 
0.361854 0.783581 -1.607129 99 88 62 0.925887 -0.334776 -0.175092 0.000000 
0.362145 0.791485 -1.473918 61 63 50 0.983184 -0.177372 -0.043462 0.000000 
0.404079 0.774550 -1.350697 26 28 13 -0.608100 0.791245 -0.064387 0.000000 
0.360024 0.797513 -1.608725 88 84 67 0.159210 0.726302 0.668683 0.000000 
0.368241 0.774066 -1.579455 95 83 54 0.103566 0.953072 0.284479 0.000000 
0.377326 0.771806 -1.573789 100 96 83 -0.365159 0.929375 0.054049 0.000000 
0.389866 0.775169 -1.432633 39 39 23 0.737806 -0.602782 -0.303802 0.000000 
0.383468 0.780094 -1.348993 52 51 41 0.934512 -0.188017 0.302219 0.000000 
0.364083 0.782442 -1.489165 46 45 32 -0.837386 -0.230319 0.495720 0.000000 
0.384728 0.787304 -1.372309 42 45 36 0.857683 -0.509557 -0.068783 0.000000 
0.382031 0.787335 -1.389617 44 47 39 0.828470 -0.536944 -0.159150 0.000000 
0.353921 0.777886 -1.625190 92 82 55 -0.455143 0.886624 0.082121 0.000000 
0.370364 0.790280 -1.572164 125 118 101 0.700305 0.694202 0.166303 0.000000 
0.346945 0.796804 -1.697571 126 122 113 0.957327 0.288796 -0.011060 0.000000 
0.355872 0.793713 -1.545261 64 63 40 0.582524 -0.808017 0.088174 0.000000 
0.369310 0.767271 -1.542256 94 81 51 0.452018 -0.863489 -0.223756 0.000000 
0.366937 0.778122 -1.454332 59 58 49 0.844935 0.499757 -0.190598 0.000000 
0.370081 0.789166 -1.440624 55 56 44 0.838268 -0.543553 -0.043095 0.000000 
0.390071 0.804291 -1.395271 106 109 102 -0.109244 0.994010 -0.003245 0.000000 
0.367292 0.799684 -1.493860 53 56 47 -0.278476 0.958914 0.054183 0.000000 
0.374957 0.801183 -1.514554 91 93 84 0.462276 0.884772 0.058985 0.000000 
0.346216 0.785541 -1.734245 111 109 100 0.769792 -0.634031 -0.073657 0.000000 
0.403231 0.773137 -1.353573 27 28 12 0.619387 -0.779699 0.091815 0.000000 
0.371622 0.791915 -1.587083 118 118 113 -0.539539 -0.593662 0.597045 0.000000 
0.396857 0.767018 -1.380687 25 25 7 0.788782 -0.584339 -0.190711 0.000000 
0.362257 0.796568 -1.493651 54 55 40 0.689751 -0.692865 -0.210195 0.000000 
0.382629 0.782462 -1.370265 44 45 30 -0.872455 0.261585 0.412791 0.000000 
0.355056 0.781481 -1.653124 100 88 60 -0.844214 0.513034 0.155241 0.000000 
0.366855 0.774949 -1.585823 120 115 102 -0.044967 -0.884348 -0.464657 0.000000 
0.371869 0.775615 -1.423424 103 99 82 0.869268 0.448799 -0.207252 0.000000 
0.394137 0.765073 -1.381962 19 21 6 0.567918 -0.814457 -0.118867 0.000000 
0.389901 0.789506 -1.360029 55 58 45 0.721084 -0.562676 -0.404269 0.000000 
0.347571 0.791582 -1.705715 122 118 108 -0.995603 -0.051705 0.078108 0.000000 
0.363661 0.767621 -1.549886 89 75 42 -0.163700 0.962554 0.216084 0.000000 
0.374209 0.790352 -1.424837 46 48 36 0.712329 -0.621463 -0.326146 0.000000 
0.380043 0.768681 -1.441627 42 41 24 -0.050513 0.941619 0.332869 0.000000 
0.366182 0.782701 -1.463690 43 43 31 0.942043 0.335089 -0.016438 0.000000 
0.397778 0.770571 -1.384868 25 28 12 -0.880759 0.452592 0.139370 0.000000 
0.403530 0.773728 -1.351149 27 28 13 0.530007 -0.846053 0.057336 0.000000 
0.375590 0.800003 -1.484915 79 80 73 -0.081346 -0.986763 -0.140292 0.000000 
0.369005 0.781603 -1.535919 56 49 26 -0.982396 -0.115362 -0.146934 0.000000 
0.393829 0.789450 -1.398962 84 90 84 0.548605 0.830827 0.093594 0.000000 
0.368880 0.758029 -1.501836 92 87 72 0.809267 -0.567828 -0.150527 0.000000 
0.398345 0.769341 -1.376166 24 26 10 -0.879985 0.440725 0.177168 0.000000 
0.356747 0.793012 -1.498841 58 58 39 0.759792 -0.542709 -0.358026 0.000000 
0.366439 0.767697 -1.551426 67 62 44 0.237112 -0.957722 -0.162932 0.000000 
0.385797 0.769057 -1.418263 29 26 8 -0.082211 0.990000 0.114632 0.000000 
0.375043 0.795911 -1.462084 56 58 48 0.180333 -0.962213 -0.204026 0.000000 
0.399579 0.772867 -1.350298 47 41 18 -0.486599 0.848158 -0.209403 0.000000 
0.380909 0.775523 -1.474280 53 44 27 0.702977 -0.690778 -0.169263 0.000000 
0.358691 0.788224 -1.488876 59 60 47 0.937873 0.157914 -0.308962 0.000000 
0.365128 0.793978 -1.465728 57 58 47 -0.711408 0.579360 0.397794 0.000000 
0.384383 0.769363 -1.412630 33 31 12 -0.051441 0.998384 0.024146 0.000000 
0.386384 0.782731 -1.344198 32 32 23 0.726160 -0.682503 0.082948 0.000000 
0.365543 0.782131 -1.462012 54 53 41 0.939945 0.336716 0.055903 0.000000 
0.388900 0.780158 -1.454292 47 48 35 0.918913 -0.369517 0.138046 0.000000 
0.375133 0.793441 -1.439507 50 52 42 0.365572 -0.925481 -0.099207 0.000000 
0.383905 0.768355 -1.400549 51 48 39 -0.355681 -0.934460 -0.016573 0.000000 
0.374157 0.774074 -1.559691 107 96 67 0.778701 -0.602621 0.174563 0.000000 
0.367984 0.762654 -1.507717 95 85 58 -0.855729 0.495884 0.147741 0.000000 
0.395962 0.790080 -1.365694 73 80 72 0.074657 -0.991222 0.109115 0.000000 
0.389851 0.766161 -1.401994 23 26 13 0.337207 -0.941423 -0.003761 0.000000 
0.378670 0.779100 -1.388687 52 52 37 -0.996104 0.077293 -0.042457 0.000000 
0.397300 0.769205 -1.354693 29 28 9 -0.686401 0.676845 -0.265960 0.000000 
0.373789 0.773315 -1.490581 38 35 18 0.331893 -0.907954 -0.255865 0.000000 
0.397532 0.777514 -1.406045 34 37 19 -0.962320 0.270921 -0.023292 0.000000 
0.392790 0.768067 -1.403101 23 27 12 -0.557607 0.827188 0.069524 0.000000 
0.397281 0.768690 -1.383514 29 30 12 -0.875261 0.455835 0.161654 0.000000 
0.399657 0.770386 -1.378119 34 34 13 -0.898811 0.393502 0.193121 0.000000 
0.374100 0.772311 -1.565342 74 71 54 -0.482010 0.873730 -0.065287 0.000000 
0.358615 0.798104 -1.537691 62 62 50 -0.581233 0.813727 0.004103 0.000000 
0.352699 0.780940 -1.666993 96 89 71 -0.847614 0.461360 0.262101 0.000000 
0.403072 0.774062 -1.361501 33 34 17 -0.823966 0.560297 0.084546 0.000000 
0.376385 0.776703 -1.562169 113 104 80 -0.871128 0.393756 -0.293416 0.000000 
0.354564 0.792579 -1.557273 54 53 30 0.641265 -0.757317 -0.123492 0.000000 
0.365229 0.768128 -1.551043 89 76 44 0.218793 -0.958711 -0.181665 0.000000 
0.392355 0.764669 -1.381674 59 52 27 0.341118 -0.888110 -0.308058 0.000000 
0.381166 0.773635 -1.580712 90 88 77 -0.641856 0.764796 -0.055751 0.000000 
0.363443 0.787788 -1.602814 93 81 54 0.877786 -0.359301 -0.316852 0.000000 
0.400688 0.771673 -1.353179 28 28 10 -0.543876 0.808881 -0.223405 0.000000 
0.365749 0.798575 -1.509644 56 59 48 0.150252 -0.988502 -0.016946 0.000000 
0.374752 0.777415 -1.422036 35 38 27 0.893112 0.253271 -0.371760 0.000000 
0.382632 0.788398 -1.382380 48 51 43 -0.799549 0.597167 0.064135 0.000000 
0.386418 0.768987 -1.384737 30 29 19 0.643633 0.763511 -0.052804 0.000000 
0.369259 0.785931 -1.533514 51 47 27 0.924566 -0.374896 -0.068042 0.000000 
0.382259 0.771627 -1.444239 34 33 16 0.358175 -0.888694 -0.286240 0.000000 
0.363941 0.801659 -1.521609 71 69 59 0.233635 -0.964229 -0.125208 0.000000 
0.401528 0.772223 -1.358382 27 28 12 0.756890 -0.651410 -0.052740 0.000000 
0.377047 0.793986 -1.441355 59 63 53 0.198335 -0.980079 -0.010439 0.000000 
0.360493 0.798428 -1.598142 85 80 65 0.207357 0.936586 -0.282507 0.000000 
0.372591 0.782722 -1.553286 83 76 52 0.958781 0.270820 0.085995 0.000000 
0.401619 0.772722 -1.364489 25 28 12 0.859511 -0.509085 -0.045528 0.000000 
0.361081 0.779840 -1.592049 98 84 54 0.546041 -0.807525 -0.223031 0.000000 
0.362438 0.765208 -1.543600 81 72 46 0.199934 -0.932559 -0.300600 0.000000 
0.393108 0.769441 -1.411508 30 30 11 0.541041 -0.840863 0.014991 0.000000 
0.382542 0.791768 -1.401979 69 71 59 -0.585837 0.795600 0.154325 0.000000 
0.395001 0.770554 -1.408517 29 31 15 0.656888 -0.743282 -0.126611 0.000000 
0.385095 0.779720 -1.361166 36 35 20 -0.978644 0.005805 0.205480 0.000000 
0.376906 0.773555 -1.575261 110 96 67 -0.454836 0.889306 0.047520 0.000000 
0.355892 0.805051 -1.625164 123 115 100 -0.335874 -0.941715 0.019012 0.000000 
0.380694 0.793274 -1.428039 63 66 57 0.227117 -0.966208 -0.121899 0.000000 
0.379958 0.789364 -1.415668 53 56 42 0.706473 -0.618368 -0.344263 0.000000 
0.392967 0.762210 -1.373252 55 51 24 -0.658792 0.739828 0.136560 0.000000 
0.368211 0.782071 -1.532960 53 46 25 -0.982682 0.160364 -0.092842 0.000000 
0.379472 0.775200 -1.391509 27 29 20 0.885636 0.389799 -0.252399 0.000000 
0.380403 0.778390 -1.574721 133 126 109 0.891611 -0.272395 0.361705 0.000000 
0.364459 0.795508 -1.474288 46 48 39 -0.787381 0.616391 0.009653 0.000000 
0.392595 0.791383 -1.439816 79 82 73 0.963288 0.232697 0.133898 0.000000 
0.386183 0.771562 -1.359012 40 39 24 -0.966141 0.243745 0.084616 0.000000 
0.373704 0.775801 -1.527490 97 85 61 -0.940355 -0.251410 -0.229185 0.000000 
0.374338 0.800191 -1.493612 95 100 96 0.140668 0.989247 0.040027 0.000000 
0.390109 0.794609 -1.322029 64 62 51 0.281584 -0.924796 0.255856 0.000000 
0.392192 0.761850 -1.373072 46 47 30 0.660598 -0.750361 -0.023843 0.000000 
0.375120 0.769881 -1.541508 110 99 74 -0.915805 0.345397 -0.204945 0.000000 
0.385692 0.794979 -1.415304 111 106 91 0.182461 -0.981475 -0.058435 0.000000 
0.380658 0.786153 -1.397235 49 50 34 0.783136 -0.530098 -0.325106 0.000000 
0.362618 0.797636 -1.490713 45 47 36 -0.680911 0.699609 0.216583 0.000000 
0.383950 0.787113 -1.379106 49 53 41 0.793643 -0.585820 -0.164150 0.000000 
0.378325 0.776693 -1.379750 45 45 31 0.985641 -0.084416 -0.146241 0.000000 
0.398664 0.773027 -1.381548 25 28 12 0.906472 -0.397377 -0.142829 0.000000 
0.371650 0.771937 -1.561302 80 74 56 0.479800 -0.875738 -0.053617 0.000000 
0.400226 0.770430 -1.362452 27 28 11 0.904835 -0.425417 0.017122 0.000000 
0.366299 0.759750 -1.504072 95 83 56 0.656144 -0.751320 -0.070662 0.000000 
0.379801 0.775237 -1.375346 25 26 17 -0.922541 -0.233138 0.307514 0.000000 
0.363197 0.794965 -1.612244 112 103 85 -0.881955 -0.389142 0.265939 0.000000 
0.380526 0.791734 -1.499252 63 66 54 0.966874 0.048158 -0.250671 0.000000 
0.396280 0.772090 -1.398015 32 34 17 0.851389 -0.500210 -0.157883 0.000000 
0.386543 0.790355 -1.468604 57 60 48 -0.892114 -0.431117 0.135169 0.000000 
0.347848 0.779331 -1.688534 87 80 57 0.692573 -0.713247 -0.107799 0.000000 
0.354418 0.779186 -1.643265 92 84 60 -0.699858 0.713884 0.023843 0.000000 
0.397124 0.778944 -1.416375 39 44 28 0.937990 -0.282092 -0.201494 0.000000 
0.379593 0.774786 -1.577560 123 115 90 -0.747203 0.647576 -0.149441 0.000000 
0.391006 0.789656 -1.357803 58 61 50 0.792734 -0.536401 -0.289562 0.000000 
0.385978 0.771355 -1.439670 33 32 16 0.477573 -0.832253 -0.281566 0.000000 
0.368456 0.787059 -1.445369 42 43 33 0.945962 -0.270858 -0.178304 0.000000 
0.357098 0.795703 -1.638685 118 111 95 -0.921965 -0.349420 0.166992 0.000000 
0.365918 0.786550 -1.602439 109 101 88 0.895167 -0.338108 -0.290445 0.000000 
0.347848 0.779331 -1.688534 87 80 57 -0.692573 0.713247 0.107799 0.000000 
0.389292 0.793763 -1.429251 135 130 118 -0.285033 -0.952298 -0.109022 0.000000 
0.353868 0.778778 -1.636440 92 84 59 0.565335 -0.821658 -0.072625 0.000000 
0.390439 0.793220 -1.417395 130 127 118 -0.297317 -0.953201 0.054870 0.000000 
0.386389 0.773015 -1.361965 33 33 23 0.967184 0.124261 -0.221620 0.000000 
0.366875 0.761304 -1.521367 94 82 52 0.541902 -0.826957 -0.149951 0.000000 
0.369163 0.771788 -1.477840 81 75 63 -0.322186 -0.946656 -0.006220 0.000000 
0.367720 0.781381 -1.591746 94 82 54 0.493552 -0.628310 -0.601359 0.000000 
0.393843 0.767993 -1.395833 25 25 9 -0.604025 0.763225 0.229436 0.000000 
0.384177 0.778444 -1.469345 49 52 39 -0.831050 0.475554 0.288451 0.000000 
0.370563 0.773551 -1.577018 91 80 57 0.005828 0.977973 0.208650 0.000000 
0.383071 0.776296 -1.369721 35 34 16 0.896139 -0.052874 -0.440613 0.000000 
0.354236 0.798649 -1.538445 94 89 72 0.530691 -0.846612 -0.040183 0.000000 
0.389926 0.792652 -1.407104 103 103 96 0.056987 0.987389 0.147701 0.000000 
0.385001 0.770810 -1.369260 34 33 19 0.858000 0.329286 -0.394216 0.000000 
0.380129 0.781607 -1.388904 45 47 34 -0.920772 0.386644 0.051818 0.000000 
0.361811 0.772792 -1.569457 92 77 45 -0.105877 -0.986198 -0.127290 0.000000 
0.398475 0.785338 -1.403778 56 61 45 -0.971312 -0.185073 0.149334 0.000000 
0.350095 0.777822 -1.685586 107 106 91 0.835164 -0.549986 0.004074 0.000000 
0.382650 0.786199 -1.391430 46 49 36 0.826006 -0.530033 -0.191778 0.000000 
0.377007 0.771964 -1.569747 96 93 78 0.444502 -0.881765 0.157820 0.000000 
0.361949 0.786118 -1.478708 60 61 49 0.949984 0.255401 -0.179727 0.000000 
0.350748 0.776997 -1.633945 90 81 56 0.508322 -0.859272 -0.057099 0.000000 
0.396832 0.770041 -1.352235 30 28 9 -0.702642 0.638031 -0.314977 0.000000 
0.352647 0.783519 -1.667359 95 88 66 0.907499 -0.372491 -0.194156 0.000000 
0.404969 0.777629 -1.361123 33 36 19 -0.870761 0.459609 0.174740 0.000000 
0.397477 0.769713 -1.352276 30 28 9 -0.702588 0.647924 -0.294219 0.000000 
0.363922 0.759156 -1.518964 88 76 46 0.288141 -0.921765 -0.259470 0.000000 
0.384059 0.784152 -1.372617 40 43 33 0.882287 -0.390963 -0.262140 0.000000 
0.371125 0.773717 -1.451829 64 61 54 0.674572 0.737059 -0.041184 0.000000 
0.369621 0.778038 -1.446397 52 51 45 0.917104 0.389939 -0.082879 0.000000 
0.398003 0.769110 -1.355989 34 30 9 -0.719776 0.657322 -0.223271 0.000000 
0.365759 0.796289 -1.476870 53 55 44 0.598314 -0.800991 -0.020823 0.000000 
0.369795 0.784178 -1.447789 51 49 36 -0.953663 -0.013606 0.300571 0.000000 
0.404193 0.778101 -1.366407 24 30 16 -0.934012 0.318695 0.161417 0.000000 
0.397268 0.765435 -1.360901 33 29 8 0.744936 -0.647837 0.159304 0.000000 
0.254076 0.754231 -2.119028 67 65 51 0.888225 0.388319 -0.245489 0.000000 
0.369281 0.779934 -1.428163 62 63 53 -0.958155 0.072723 0.276857 0.000000 
0.393104 0.775737 -1.427805 38 39 24 -0.749225 0.595866 0.289147 0.000000 
0.377906 0.791331 -1.510400 61 63 48 -0.960902 0.161684 0.224780 0.000000 
0.392595 0.791383 -1.439816 79 82 73 0.963288 0.232697 0.133898 0.000000 
0.358573 0.795281 -1.605579 75 70 47 -0.189360 0.540813 0.819551 0.000000 
0.376149 0.786763 -1.513213 56 56 42 0.790637 -0.529743 -0.307028 0.000000 
0.402438 0.782103 -1.380647 51 56 35 0.988489 0.026163 -0.149013 0.000000 
0.366282 0.796101 -1.476736 57 59 47 -0.532735 0.845457 0.037361 0.000000 
0.397424 0.770032 -1.381978 25 27 11 -0.912061 0.383656 0.144749 0.000000 
0.373528 0.772360 -1.558666 90 83 64 0.710497 -0.701919 0.050035 0.000000 
0.372959 0.787300 -1.521767 59 55 36 0.720592 -0.678470 -0.142915 0.000000 
0.375882 0.782308 -1.401302 35 39 31 0.967192 -0.050775 -0.248919 0.000000 
0.394723 0.788048 -1.331805 28 27 11 0.757597 -0.652721 0.001380 0.000000 
0.384977 0.780136 -1.357831 39 39 29 -0.950701 0.126317 0.283216 0.000000 
0.391838 0.790412 -1.361474 62 67 57 0.461922 -0.879784 -0.112283 0.000000 
0.388231 0.792234 -1.387613 101 98 83 -0.272978 0.961031 0.043627 0.000000 
0.377024 0.784358 -1.402194 49 53 42 -0.938485 0.235667 0.252401 0.000000 
0.384174 0.804651 -1.448635 109 112 107 0.276369 -0.941856 -0.191121 0.000000 
0.376671 0.783024 -1.415635 48 50 38 0.927819 -0.339784 -0.153943 0.000000 
0.375999 0.788622 -1.515730 61 58 41 0.797007 -0.528708 -0.291973 0.000000 
0.364101 0.771851 -1.501676 55 45 19 0.866594 -0.103877 0.488082 0.000000 
0.375750 0.771290 -1.408001 97 92 69 -0.663504 -0.676482 0.319585 0.000000 
0.369784 0.786796 -1.544168 58 53 29 0.985920 0.110871 0.125177 0.000000 
0.401941 0.779549 -1.380163 38 43 25 0.935541 -0.256678 -0.242652 0.000000 
0.394759 0.790139 -1.438042 138 141 144 -0.965017 -0.069199 0.252892 0.000000 
0.372433 0.774662 -1.440476 43 42 31 0.814347 0.580102 0.017913 0.000000 
0.366224 0.801678 -1.549149 120 113 102 0.048350 0.992858 0.109068 0.000000 
0.389736 0.772886 -1.431708 38 35 17 0.634549 -0.755704 -0.162045 0.000000 
0.381883 0.788013 -1.395312 50 52 36 -0.737287 0.658884 0.149267 0.000000 
0.376545 0.773205 -1.574559 110 100 70 -0.407681 0.913049 0.011722 0.000000 
0.357186 0.802941 -1.572996 123 115 100 0.420274 -0.907321 -0.011783 0.000000 
0.395399 0.789972 -1.323669 39 38 25 -0.703149 0.700163 0.123909 0.000000 
0.388670 0.768341 -1.410092 28 26 10 0.101517 -0.985307 -0.137346 0.000000 
0.397739 0.764920 -1.369849 24 25 8 0.795964 -0.586105 -0.151398 0.000000 
0.386835 0.783480 -1.339408 32 30 12 0.571901 -0.819585 0.034787 0.000000 
0.405564 0.774984 -1.343581 46 43 20 0.703145 -0.697122 -0.140027 0.000000 
0.348777 0.785033 -1.702640 105 99 80 0.971192 -0.172288 -0.164630 0.000000 
0.384522 0.798237 -1.471836 88 89 80 -0.537986 -0.842245 -0.034575 0.000000 
0.373958 0.777814 -1.418711 47 48 36 0.971823 0.055148 -0.229169 0.000000 
0.376016 0.782786 -1.402708 49 51 39 -0.986828 0.047656 0.154592 0.000000 
0.388862 0.774965 -1.358242 30 30 19 0.985511 -0.043051 -0.164058 0.000000 
0.402464 0.773221 -1.363083 25 28 13 0.828041 -0.546654 -0.124573 0.000000 
0.381680 0.786599 -1.392377 51 51 38 0.780126 -0.600682 -0.174882 0.000000 
0.382194 0.774293 -1.389475 24 25 17 0.872483 0.479371 -0.094743 0.000000 
0.356439 0.791163 -1.496061 36 37 25 -0.797455 0.459141 0.391478 0.000000 
0.361366 0.797066 -1.496203 54 56 41 0.681782 -0.688109 -0.248352 0.000000 
0.394991 0.762954 -1.365792 35 34 14 -0.732984 0.680131 -0.012518 0.000000 
0.366420 0.760475 -1.514326 92 80 52 -0.714576 0.677853 0.172906 0.000000 
0.384775 0.774742 -1.450862 42 42 26 0.654548 -0.754371 0.049911 0.000000 
0.366495 0.782402 -1.592766 93 82 53 0.556090 -0.623700 -0.549329 0.000000 
0.396445 0.775012 -1.420893 40 43 26 0.866825 -0.452062 -0.210366 0.000000 
0.377739 0.775110 -1.419822 32 34 25 0.758005 0.651912 0.020939 0.000000 
0.373429 0.773309 -1.483503 37 36 20 0.206497 -0.976937 -0.054341 0.000000 
0.373432 0.794185 -1.447642 50 50 41 0.474400 -0.857513 -0.199039 0.000000 
0.380523 0.782682 -1.388081 41 43 31 0.924340 -0.378439 -0.048788 0.000000 
0.398362 0.773447 -1.390653 31 33 15 0.890439 -0.427238 -0.156798 0.000000 
0.359357 0.777931 -1.605475 97 87 58 -0.747024 0.659992 0.079779 0.000000 
0.399808 0.790723 -1.350642 70 77 65 0.112045 0.978854 -0.171146 0.000000 
0.384012 0.774727 -1.447877 40 40 26 -0.694716 0.694716 0.186387 0.000000 
0.387142 0.782811 -1.350342 36 36 25 -0.804002 0.550919 -0.223762 0.000000 
0.381914 0.783662 -1.377914 38 40 30 0.851327 -0.471948 -0.229145 0.000000 
0.385450 0.777268 -1.365617 26 26 16 0.933766 0.019213 -0.357367 0.000000 
0.379207 0.781397 -1.388276 48 49 33 -0.939380 0.339112 0.050672 0.000000 
0.399008 0.772238 -1.378418 25 28 12 -0.897894 0.382301 0.218248 0.000000 
0.384431 0.766758 -1.410683 31 35 23 -0.061405 -0.998099 0.005204 0.000000 
0.405148 0.777859 -1.356045 24 28 15 -0.889642 0.434076 0.141827 0.000000 
0.366286 0.775660 -1.514991 48 40 17 0.993763 -0.075404 -0.082157 0.000000 
0.350873 0.777376 -1.658136 85 78 56 -0.566758 0.815721 0.115695 0.000000 
0.384083 0.781991 -1.340042 37 36 21 -0.588363 0.793010 -0.158000 0.000000 
0.383158 0.770526 -1.393903 32 31 21 0.768560 0.620586 -0.155524 0.000000 
0.394344 0.787415 -1.333062 30 28 11 0.756901 -0.652985 -0.026681 0.000000 
0.385172 0.791151 -1.397278 68 72 62 0.454719 -0.882355 -0.121163 0.000000 
0.365055 0.790721 -1.459662 63 64 50 0.864545 -0.467121 -0.185365 0.000000 
0.391809 0.788491 -1.355534 34 36 27 0.855363 -0.452839 -0.251577 0.000000 
0.354387 0.796287 -1.654863 119 114 100 0.938947 0.283482 -0.194980 0.000000 
0.379095 0.769040 -1.435643 48 49 32 0.037210 0.991151 0.127418 0.000000 
0.389607 0.767193 -1.390455 41 40 31 -0.090577 0.991762 -0.090577 0.000000 
0.373617 0.784563 -1.410774 54 55 45 0.912036 -0.410093 -0.003881 0.000000 
0.392009 0.768663 -1.406069 27 27 11 -0.441152 0.865741 0.236385 0.000000 
0.395644 0.763052 -1.365763 44 40 16 0.745544 -0.656612 0.114129 0.000000 
0.362515 0.778040 -1.489191 52 50 38 -0.657596 0.133317 0.741481 0.000000 
0.385691 0.791646 -1.425279 83 87 80 0.083213 -0.988004 -0.130093 0.000000 
0.387706 0.792689 -1.411493 79 83 76 -0.095972 0.986970 0.129147 0.000000 
0.377118 0.786733 -1.414545 48 49 32 -0.864066 0.452320 0.220900 0.000000 
0.350648 0.804102 -1.616922 121 113 100 0.065192 0.927325 0.368535 0.000000 
0.345789 0.782805 -1.719379 110 103 82 0.837056 -0.534260 -0.117916 0.000000 
0.397418 0.765172 -1.363972 25 24 6 0.711770 -0.671452 0.206243 0.000000 
0.401971 0.771918 -1.355809 28 28 12 -0.675252 0.735465 -0.055913 0.000000 
0.367811 0.797231 -1.480129 61 63 51 0.499612 -0.861936 -0.086335 0.000000 
0.386295 0.776553 -1.360606 33 32 17 0.992091 -0.001091 -0.125512 0.000000 
0.387933 0.764950 -1.435077 112 103 89 0.339195 -0.928979 -0.148138 0.000000 
0.391112 0.792201 -1.442213 125 128 128 0.868881 0.413970 -0.271431 0.000000 
0.356267 0.793276 -1.549975 65 62 37 0.713410 -0.699170 -0.046991 0.000000 
0.384123 0.776997 -1.370150 23 24 14 0.902314 -0.017124 -0.430740 0.000000 
0.353704 0.793423 -1.518836 64 62 39 0.500186 -0.865445 0.028621 0.000000 
0.377236 0.784595 -1.411368 48 51 39 0.887892 -0.459347 -0.025445 0.000000 
0.366965 0.775462 -1.583691 96 84 55 -0.078680 -0.932160 -0.353394 0.000000 
0.359775 0.778719 -1.596879 95 84 56 0.711203 -0.702819 0.015370 0.000000 
0.401111 0.779329 -1.383610 39 44 26 -0.952299 0.298635 0.062803 0.000000 
0.356545 0.776001 -1.606104 96 87 59 0.646159 -0.762100 0.041004 0.000000 
0.377974 0.779428 -1.495497 46 47 33 0.711806 -0.631103 -0.308288 0.000000 
0.347196 0.784161 -1.739856 102 102 97 -0.813681 0.572051 0.103348 0.000000 
0.367212 0.774140 -1.479773 77 73 55 0.600297 0.785926 -0.148203 0.000000 
0.397662 0.791795 -1.326694 32 32 17 -0.645226 0.763307 0.032332 0.000000 
0.400138 0.770097 -1.359474 28 28 10 0.814367 -0.568741 0.115503 0.000000 
0.397812 0.790121 -1.366764 87 96 90 -0.106311 -0.994066 0.023016 0.000000 
0.393634 0.766834 -1.390614 20 22 8 -0.455036 0.889938 0.030873 0.000000 
0.388752 0.779950 -1.454853 47 48 35 0.909164 -0.396446 0.127479 0.000000 
0.377188 0.763304 -1.534582 109 97 72 0.841377 -0.530714 -0.102116 0.000000 
0.387128 0.790052 -1.383278 57 61 51 0.465644 -0.878920 -0.103319 0.000000 
0.394826 0.789816 -1.338547 33 33 23 0.658594 -0.751672 -0.035257 0.000000 
0.376116 0.791130 -1.430013 52 55 41 0.532432 -0.808738 -0.249917 0.000000 
0.357871 0.776128 -1.603396 93 85 65 0.650101 -0.758215 0.049789 0.000000 
0.398487 0.772981 -1.385167 25 28 12 0.895815 -0.433279 -0.098916 0.000000 
0.402868 0.775874 -1.372487 33 36 19 0.871938 -0.469950 -0.137370 0.000000 
0.367981 0.795856 -1.465310 64 66 57 -0.361587 0.863192 0.352355 0.000000 
0.397864 0.792024 -1.337452 59 62 48 0.306163 -0.947397 -0.093294 0.000000 
0.400543 0.789896 -1.383083 86 91 80 0.713696 0.699564 -0.035331 0.000000 
0.368943 0.780763 -1.535823 59 52 29 0.978325 0.125235 0.164914 0.000000 
0.384890 0.788835 -1.388716 50 53 42 -0.662266 0.741915 0.104724 0.000000 
0.357825 0.778455 -1.479532 108 96 77 -0.435501 0.774768 0.458337 0.000000 
0.364428 0.795298 -1.472502 48 50 39 0.821270 -0.570058 0.023465 0.000000 
0.397131 0.763699 -1.367125 27 27 9 0.678421 -0.734374 -0.020982 0.000000 
0.368864 0.766482 -1.539315 92 80 50 -0.394495 0.846683 0.357073 0.000000 
0.260401 0.749855 -2.136326 83 83 75 -0.175335 -0.984396 -0.014898 0.000000 
0.367024 0.800376 -1.545310 121 123 121 0.397545 0.864161 -0.308519 0.000000 
0.399839 0.775086 -1.380723 24 28 12 0.890118 -0.394132 -0.228803 0.000000 
0.365294 0.766578 -1.544304 89 75 43 0.248571 -0.933898 -0.256997 0.000000 
0.378780 0.777248 -1.386811 30 33 25 0.999753 0.021100 0.007033 0.000000 
0.375980 0.772488 -1.423256 93 84 61 0.668034 0.723067 -0.175798 0.000000 
0.359333 0.775637 -1.577747 91 79 55 -0.073944 -0.987098 -0.142020 0.000000 
0.367861 0.780843 -1.442904 57 57 49 -0.987540 -0.156878 0.012415 0.000000 
0.396069 0.777509 -1.425644 42 44 28 0.849400 -0.484294 -0.209710 0.000000 
0.373017 0.789235 -1.522571 63 61 44 0.837707 -0.524490 -0.152176 0.000000 
0.385525 0.793639 -1.481764 84 85 72 -0.939796 -0.290332 0.180254 0.000000 
0.374340 0.772840 -1.567057 102 88 56 0.477837 -0.867078 0.140882 0.000000 
0.389362 0.767121 -1.408733 23 27 13 0.175289 -0.960793 -0.214828 0.000000 
0.388983 0.768486 -1.413393 28 27 10 -0.103924 0.993424 0.048051 0.000000 
0.384455 0.795005 -1.436569 104 99 89 0.042441 0.998905 0.019668 0.000000 
0.359396 0.778929 -1.612809 98 88 61 -0.820417 0.568199 0.063763 0.000000 
0.395036 0.787865 -1.443473 134 135 136 0.955641 -0.185782 -0.228552 0.000000 
0.357397 0.779754 -1.624689 95 83 57 0.667469 -0.730751 -0.143137 0.000000 
0.374307 0.796813 -1.470616 62 65 54 0.127557 -0.985881 -0.108483 0.000000 
0.357639 0.796780 -1.515479 50 50 39 0.520370 -0.853625 0.023219 0.000000 
0.394826 0.789816 -1.338547 33 33 23 -0.658594 0.751672 0.035257 0.000000 
0.358646 0.777664 -1.595669 96 84 53 0.694305 -0.719451 -0.018161 0.000000 
0.366922 0.779324 -1.523501 56 47 20 0.988004 -0.130093 0.083213 0.000000 
0.374856 0.777247 -1.420787 45 47 34 0.941040 0.291764 -0.171223 0.000000 
0.362288 0.801228 -1.488846 105 108 100 0.552253 -0.798045 -0.241125 0.000000 
0.369523 0.768675 -1.550694 95 82 52 0.438818 -0.876158 -0.199463 0.000000 
0.361202 0.786087 -1.488436 53 53 41 -0.898431 -0.165311 0.406810 0.000000 
0.387118 0.793280 -1.407487 103 100 91 -0.088274 0.987491 0.130645 0.000000 
0.372369 0.775255 -1.411687 50 50 39 0.765895 0.478480 -0.429489 0.000000 
0.353211 0.798267 -1.548607 100 95 78 0.696378 -0.716316 0.044147 0.000000 
0.383275 0.785156 -1.378100 49 50 33 0.821272 -0.535876 -0.195830 0.000000 
0.390176 0.783160 -1.354883 33 33 19 -0.877144 0.459456 0.139709 0.000000 
0.382912 0.765387 -1.392523 80 79 73 -0.536294 -0.823324 0.185814 0.000000 
0.360370 0.793237 -1.490510 49 51 38 0.881772 -0.437230 -0.176939 0.000000 
0.353174 0.778133 -1.664163 99 87 62 0.736149 -0.660879 -0.146026 0.000000 
0.387473 0.784906 -1.360715 31 33 23 0.813708 -0.355101 -0.460199 0.000000 
0.403284 0.779495 -1.411440 131 135 135 0.992881 -0.110818 -0.043655 0.000000 
0.356584 0.779303 -1.624242 93 83 56 0.670078 -0.721974 -0.172480 0.000000 
0.349836 0.778374 -1.668957 89 78 47 -0.705716 0.677798 0.206286 0.000000 
0.391627 0.778641 -1.457521 96 92 80 0.948398 -0.316961 -0.008701 0.000000 
0.372558 0.786900 -1.426747 52 53 41 -0.838005 0.290736 0.461758 0.000000 
0.361767 0.796905 -1.603173 83 81 69 -0.700387 -0.645644 0.304306 0.000000 
0.380206 0.773985 -1.373935 38 39 25 -0.901460 -0.248526 0.354408 0.000000 
0.364308 0.758788 -1.515319 90 78 49 0.450885 -0.854390 -0.258304 0.000000 
0.363314 0.788969 -1.467048 50 51 38 -0.990994 -0.007734 0.133679 0.000000 
0.375571 0.775987 -1.398956 64 67 59 0.966380 0.156956 -0.203653 0.000000 
0.386985 0.764535 -1.384928 32 34 19 0.336353 0.924620 0.178732 0.000000 
0.375260 0.778153 -1.403780 49 51 39 0.972232 0.057623 -0.226813 0.000000 
0.351409 0.783006 -1.673542 92 86 64 0.881444 -0.431157 -0.192770 0.000000 
0.365388 0.780543 -1.479297 51 49 37 0.946702 0.127209 -0.295928 0.000000 
0.388305 0.784919 -1.359740 36 37 22 0.799110 -0.363523 -0.478826 0.000000 
0.360973 0.797312 -1.498374 56 57 42 -0.559921 0.770490 0.304686 0.000000 
0.394956 0.763879 -1.375300 23 25 8 -0.615801 0.748096 0.247266 0.000000 
0.388322 0.786685 -1.358900 27 29 21 0.789101 -0.392130 -0.472815 0.000000 
0.384234 0.769927 -1.384187 37 35 25 -0.786006 -0.616669 0.043745 0.000000 
0.395035 0.766292 -1.383405 19 21 7 0.655745 -0.732531 -0.182749 0.000000 
0.374470 0.777193 -1.549751 95 87 62 0.991551 -0.129333 0.009949 0.000000 
0.385027 0.774063 -1.447660 40 41 26 0.706931 -0.682289 -0.186359 0.000000 
0.357748 0.791966 -1.606431 71 64 38 -0.021140 0.299695 0.953801 0.000000 
0.361923 0.800008 -1.527069 64 66 53 0.492682 -0.864677 -0.097968 0.000000 
0.363822 0.770893 -1.576193 82 78 62 -0.154704 -0.937808 -0.310777 0.000000 
0.353273 0.774830 -1.615725 98 89 63 0.414575 -0.881158 -0.227348 0.000000 
0.367823 0.773401 -1.434409 108 96 72 -0.784215 -0.610599 -0.110349 0.000000 
0.371427 0.782157 -1.426199 55 55 41 0.859869 -0.182667 -0.476715 0.000000 
0.354380 0.774230 -1.610547 98 89 63 0.598448 -0.800267 -0.037841 0.000000 
0.367084 0.798735 -1.555610 117 116 111 -0.078280 -0.992687 -0.091894 0.000000 
0.355791 0.779073 -1.629650 91 82 56 0.494115 -0.867137 -0.062634 0.000000 
0.380974 0.777394 -1.587394 130 123 106 0.399834 -0.765397 -0.504281 0.000000 
0.372816 0.778372 -1.543573 83 75 50 0.938294 0.218240 0.268283 0.000000 
0.397382 0.765977 -1.373032 23 24 7 0.809081 -0.549074 -0.209535 0.000000 
0.371090 0.783322 -1.426024 55 56 42 0.862743 -0.169599 -0.476352 0.000000 
0.398715 0.788590 -1.388420 116 124 124 0.721022 0.682369 -0.120418 0.000000 
