ply
format ascii 1.0
comment Created by Open3D
obj_info Generated by CloudCompare!
element vertex 624
property float x
property float y
property float z
property uchar red
property uchar green
property uchar blue
property float nx
property float ny
property float nz
property float scalar_stem2
end_header
0.165573 0.323532 -0.631472 105 109 103 0.736861 0.676032 0.004147 0.000000 
0.145371 0.346958 -1.491863 90 80 36 0.736470 -0.661166 -0.143077 0.000000 
0.142301 0.337364 -1.307410 126 121 104 0.177007 -0.956900 -0.230242 0.000000 
0.156474 0.368516 -1.360382 122 108 68 0.678043 0.681234 0.276003 0.000000 
0.144355 0.332323 -0.983813 98 95 81 0.672185 0.736065 -0.079849 0.000000 
0.158956 0.361757 -1.544478 105 91 41 0.998923 0.046104 -0.005123 0.000000 
0.112602 0.368142 -1.656112 119 119 109 -0.999339 -0.035654 0.007131 0.000000 
0.123589 0.349784 -1.813401 117 116 104 0.818085 0.556773 0.144019 0.000000 
0.151803 0.324212 -1.006182 102 99 89 -0.194552 0.964924 0.176272 0.000000 
0.163300 0.325596 -0.830396 94 85 62 -0.026454 -0.997829 0.060314 0.000000 
0.181996 0.326881 -0.380216 44 47 31 0.925870 0.364654 -0.098958 0.000000 
0.201634 0.333990 -0.135948 93 94 72 -0.006086 -0.960349 0.278733 0.000000 
0.119150 0.360006 -1.493288 75 73 53 -0.960282 -0.275972 -0.041208 0.000000 
0.160800 0.337877 -0.729587 54 54 34 -0.932830 0.321999 -0.161691 0.000000 
0.143592 0.327780 -1.135832 106 102 88 0.471055 0.852746 0.225682 0.000000 
0.137675 0.335778 -1.171540 104 99 84 -0.353367 -0.933047 -0.067497 0.000000 
0.115341 0.365679 -1.761565 102 101 85 0.912972 0.407083 -0.027666 0.000000 
0.217783 0.341867 -0.218555 56 60 42 -0.997901 0.045795 0.045795 0.000000 
0.174382 0.304873 -0.856848 118 110 87 0.642840 -0.315753 -0.697895 0.000000 
0.126855 0.380275 -1.617857 75 70 26 0.450887 -0.892572 -0.003944 0.000000 
0.161358 0.354831 -1.358952 110 96 56 -0.963467 0.266334 -0.028229 0.000000 
0.211371 0.351004 -0.261041 57 60 40 0.320459 0.945932 -0.050192 0.000000 
0.146781 0.342821 -1.404422 100 90 57 -0.913529 0.404087 -0.046677 0.000000 
0.180696 0.343301 -0.649933 78 80 60 -0.619870 -0.774465 0.126352 0.000000 
0.154343 0.324704 -0.907103 129 122 105 -0.178869 -0.972997 -0.145886 0.000000 
0.162512 0.322674 -0.808776 95 87 62 0.105854 -0.989908 0.094222 0.000000 
0.136899 0.373437 -1.460669 91 80 39 0.210401 -0.977609 0.003487 0.000000 
0.198738 0.339888 -0.139154 92 92 66 0.978292 0.206018 -0.022368 0.000000 
0.159658 0.359261 -1.489995 106 94 46 0.984167 -0.128893 -0.121666 0.000000 
0.187624 0.321734 -0.432091 72 75 54 -0.254214 0.957585 -0.135669 0.000000 
0.165875 0.346931 -1.046628 119 110 80 0.997678 0.005223 0.067905 0.000000 
0.136991 0.341333 -1.395416 131 124 104 -0.407654 -0.758008 0.509158 0.000000 
0.156397 0.365462 -1.351257 107 94 58 0.782358 0.621076 0.046687 0.000000 
0.191945 0.331314 -0.556696 63 66 47 0.956668 -0.291053 -0.008597 0.000000 
0.199755 0.328881 -0.301994 78 82 63 0.275695 -0.953721 -0.120040 0.000000 
0.160371 0.359812 -1.181733 100 94 69 0.814367 0.568741 0.115503 0.000000 
0.165044 0.357263 -1.076712 121 112 87 -0.740064 -0.619625 0.261479 0.000000 
0.130808 0.343276 -1.609932 111 105 79 -0.326490 -0.943049 0.063737 0.000000 
0.158593 0.350722 -1.337779 107 93 51 -0.638391 0.768617 -0.041050 0.000000 
0.129540 0.353353 -1.169430 90 87 73 0.998897 -0.040454 -0.023857 0.000000 
0.155072 0.327089 -0.802884 94 89 67 0.853084 0.520642 -0.034343 0.000000 
0.217297 0.339548 -0.239563 49 52 34 -0.923804 0.199474 0.326797 0.000000 
0.218608 0.340211 -0.218991 77 80 63 -0.958964 0.236113 0.156969 0.000000 
0.162765 0.330041 -0.935608 110 101 76 0.709343 -0.703657 -0.041224 0.000000 
0.163567 0.327263 -0.598009 100 106 94 0.938591 0.324534 -0.117155 0.000000 
0.150069 0.326828 -1.032538 105 100 85 0.280980 0.959291 -0.028469 0.000000 
0.135761 0.338444 -1.187647 91 87 68 0.614145 0.788411 -0.035134 0.000000 
0.178502 0.354801 -0.839413 115 109 90 0.322961 0.857623 0.400224 0.000000 
0.165084 0.319606 -0.868679 114 106 85 0.589695 -0.456053 -0.666539 0.000000 
0.123507 0.350349 -1.465479 112 107 94 -0.664412 -0.720167 0.199788 0.000000 
0.130220 0.342262 -1.388589 125 121 109 0.418052 0.905552 0.072172 0.000000 
0.157030 0.333486 -1.117297 105 102 88 -0.392477 0.899366 0.192618 0.000000 
0.122758 0.355835 -1.734143 83 80 58 0.957388 0.260630 0.124421 0.000000 
0.138140 0.337604 -1.288939 115 109 90 -0.200346 -0.977446 0.066782 0.000000 
0.161090 0.346614 -1.245561 104 92 57 0.829545 -0.554448 0.066647 0.000000 
0.154867 0.351125 -1.474983 98 91 53 0.561724 -0.821648 -0.096749 0.000000 
0.147778 0.335485 -1.150261 93 80 54 -0.361929 -0.930486 0.056593 0.000000 
0.147465 0.383998 -1.605241 99 93 57 -0.267745 -0.939189 -0.215028 0.000000 
0.127152 0.381015 -1.639207 74 68 25 0.380197 -0.919831 -0.096753 0.000000 
0.160739 0.361022 -1.418529 117 104 66 0.991111 0.127703 0.037294 0.000000 
0.196621 0.343473 -0.207324 72 78 55 0.996831 -0.066022 0.044376 0.000000 
0.226144 0.344228 -0.135874 76 77 56 -0.951294 0.145838 0.271607 0.000000 
0.115868 0.373425 -1.609451 75 71 31 0.876380 -0.476384 0.070833 0.000000 
0.156617 0.331370 -0.750942 84 82 55 0.992753 0.119569 0.012067 0.000000 
0.155449 0.355391 -0.882151 103 97 76 -0.108961 -0.985441 0.130514 0.000000 
0.160287 0.358189 -1.413646 117 103 61 0.937689 -0.315293 0.146045 0.000000 
0.171445 0.345365 -0.692359 63 61 30 -0.029149 0.996463 0.078810 0.000000 
0.132439 0.347899 -1.200234 86 81 63 0.943408 0.328198 -0.047621 0.000000 
0.172629 0.339952 -0.871656 110 102 77 0.890644 -0.448774 -0.073185 0.000000 
0.144886 0.337854 -1.387918 116 110 91 -0.270955 0.933603 0.234454 0.000000 
0.177288 0.324090 -0.681738 74 74 48 0.543205 -0.832914 -0.105744 0.000000 
0.180151 0.334863 -0.758114 80 76 47 -0.967613 0.252369 0.005980 0.000000 
0.185909 0.327495 -0.824393 106 96 68 -0.742114 -0.159350 0.651057 0.000000 
0.133385 0.364308 -1.169041 85 81 70 0.462205 -0.884399 0.064847 0.000000 
0.174762 0.327334 -0.758728 85 80 49 -0.718675 0.692854 0.058814 0.000000 
0.129959 0.377063 -1.535037 77 70 28 0.602730 -0.785194 0.142083 0.000000 
0.218153 0.340480 -0.230027 54 58 39 -0.981710 0.140594 -0.128368 0.000000 
0.156050 0.368112 -1.414742 110 96 57 0.876194 0.477547 0.065057 0.000000 
0.153272 0.349952 -1.429572 108 96 52 0.790824 -0.612029 -0.004126 0.000000 
0.119105 0.380650 -1.819333 74 71 51 0.863441 -0.502641 -0.042690 0.000000 
0.130250 0.380626 -1.599600 69 66 26 0.226693 -0.966968 -0.116548 0.000000 
0.159080 0.365475 -1.454799 118 105 59 0.984828 0.119045 0.126260 0.000000 
0.130578 0.378996 -1.526378 81 77 44 -0.084741 0.993168 -0.080222 0.000000 
0.129831 0.357458 -1.219543 110 102 77 0.889912 -0.456129 0.001314 0.000000 
0.191987 0.339826 -0.475666 64 66 46 0.772376 0.632463 -0.058535 0.000000 
0.166101 0.352235 -1.156083 128 124 104 0.950651 0.305795 0.052459 0.000000 
0.156666 0.346160 -1.280632 103 90 52 0.841412 -0.532847 -0.089998 0.000000 
0.172328 0.324738 -0.578495 51 54 39 -0.742939 -0.652521 0.149191 0.000000 
0.162945 0.351061 -1.304465 102 94 71 0.834376 -0.549263 0.046121 0.000000 
0.138420 0.344266 -1.692513 105 100 83 0.112339 0.993598 -0.011997 0.000000 
0.143740 0.380287 -1.461905 93 84 55 -0.248324 -0.967352 -0.050653 0.000000 
0.162167 0.355401 -0.986827 107 100 81 -0.553566 -0.829637 -0.072575 0.000000 
0.209172 0.334384 -0.305934 67 72 55 -0.974442 0.222283 0.032441 0.000000 
0.159640 0.346980 -1.200144 98 86 53 0.566109 -0.819634 0.087869 0.000000 
0.207721 0.328861 -0.284462 86 89 75 -0.587634 0.808861 0.020740 0.000000 
0.215371 0.332008 -0.129336 105 103 87 -0.222652 -0.960433 -0.167318 0.000000 
0.199744 0.335953 -0.146373 106 104 78 0.806450 0.570051 0.157101 0.000000 
0.157631 0.361617 -1.130939 109 104 86 0.446159 0.890929 -0.084784 0.000000 
0.156348 0.354088 -1.566952 95 84 35 -0.845741 0.533509 0.009503 0.000000 
0.146883 0.340135 -1.375229 101 92 63 0.934450 -0.353821 -0.040177 0.000000 
0.139175 0.367806 -1.279331 103 93 66 0.089447 -0.994962 -0.045276 0.000000 
0.169341 0.332010 -0.560067 62 63 45 0.998936 -0.003067 -0.046010 0.000000 
0.222040 0.358231 -0.143555 125 130 121 -0.559237 -0.825267 -0.078665 0.000000 
0.160704 0.333437 -1.017916 112 102 83 -0.634577 0.772829 -0.006913 0.000000 
0.174279 0.336916 -0.494329 40 44 29 0.984325 -0.175731 -0.014931 0.000000 
0.178002 0.344977 -0.615826 63 62 33 0.276772 0.960708 -0.020912 0.000000 
0.160671 0.361055 -1.480697 107 96 58 -0.977338 -0.092202 0.190550 0.000000 
0.163403 0.351160 -1.175095 112 100 69 0.988199 -0.087918 -0.125430 0.000000 
0.213748 0.334296 -0.128630 93 92 69 0.317470 0.935917 0.152550 0.000000 
0.114286 0.376222 -1.732983 83 83 66 0.811830 -0.582673 0.037727 0.000000 
0.160227 0.344158 -1.164440 100 87 55 -0.682668 0.713077 0.159644 0.000000 
0.173470 0.301003 -0.848179 134 122 102 -0.627778 -0.777316 0.040911 0.000000 
0.128440 0.347538 -1.758098 121 120 105 -0.386590 -0.920642 -0.054468 0.000000 
0.142749 0.338660 -1.445993 98 91 66 -0.661891 0.749019 -0.029511 0.000000 
0.113948 0.365797 -1.786004 107 106 94 0.955847 0.290910 -0.041559 0.000000 
0.165709 0.342498 -0.680597 64 63 33 0.785794 -0.618487 0.001371 0.000000 
0.184474 0.321627 -0.446253 74 77 57 -0.080806 0.995130 0.056453 0.000000 
0.129065 0.347147 -1.666258 110 110 88 -0.260714 -0.957697 0.121841 0.000000 
0.119761 0.353712 -1.667647 103 102 87 -0.868038 -0.495827 -0.025810 0.000000 
0.155503 0.371303 -1.433640 110 98 63 0.609192 0.785344 0.110095 0.000000 
0.129703 0.346240 -1.529267 103 103 78 -0.633223 -0.773939 0.006898 0.000000 
0.135646 0.340525 -1.090612 111 101 81 0.841104 0.537801 0.057571 0.000000 
0.175307 0.345151 -0.634612 65 64 34 -0.111194 -0.989039 0.097148 0.000000 
0.145446 0.368027 -1.249307 102 93 67 -0.056089 0.997954 0.030690 0.000000 
0.157140 0.353362 -1.374755 113 99 59 0.649261 -0.748225 0.136450 0.000000 
0.207571 0.354277 -0.229839 80 82 70 -0.045976 -0.997568 0.052391 0.000000 
0.117973 0.360324 -1.788373 97 95 79 0.681357 0.731725 0.018188 0.000000 
0.167026 0.348635 -1.053834 122 114 88 0.974183 -0.175177 0.142410 0.000000 
0.182356 0.324201 -0.378976 73 76 64 0.763479 0.643156 -0.058729 0.000000 
0.179445 0.321530 -0.681682 86 82 36 0.324265 -0.905301 -0.274378 0.000000 
0.161627 0.339842 -1.095800 117 108 89 0.458536 -0.864797 -0.204624 0.000000 
0.185000 0.341923 -0.618692 85 88 59 0.616382 0.786900 -0.029352 0.000000 
0.192132 0.335895 -0.550566 66 70 53 0.888578 0.446401 -0.105615 0.000000 
0.179159 0.322094 -0.544870 53 58 45 0.193491 0.979475 0.056485 0.000000 
0.203846 0.357952 -0.183368 84 90 75 0.381671 -0.923142 -0.046223 0.000000 
0.148975 0.367791 -1.248717 105 96 71 -0.167893 -0.985656 -0.017132 0.000000 
0.161133 0.358289 -1.298564 111 95 52 -0.890285 -0.452618 0.050291 0.000000 
0.166811 0.345351 -1.053954 112 104 79 0.972024 -0.230505 -0.045125 0.000000 
0.163457 0.348708 -1.181458 110 99 68 0.988017 -0.153137 0.019284 0.000000 
0.144685 0.336964 -1.363305 121 114 93 -0.307792 0.951015 0.028895 0.000000 
0.190488 0.322708 -0.397649 77 80 60 0.342082 -0.939124 0.032030 0.000000 
0.181620 0.339370 -0.399404 54 55 38 -0.914947 0.400872 0.046613 0.000000 
0.148876 0.368843 -1.306580 103 91 59 -0.295569 -0.954625 0.036474 0.000000 
0.162096 0.354219 -1.304990 103 91 57 0.999936 0.002973 -0.010901 0.000000 
0.158756 0.345063 -1.193218 102 93 62 0.527665 -0.833859 -0.162015 0.000000 
0.144453 0.346775 -1.786799 96 90 70 -0.368812 0.921338 -0.122937 0.000000 
0.164594 0.348928 -1.133516 99 92 68 0.989041 -0.147635 -0.001110 0.000000 
0.189232 0.322942 -0.385646 73 77 59 0.193785 -0.980672 0.027013 0.000000 
0.204456 0.353456 -0.204804 50 53 36 0.315402 -0.948718 0.021362 0.000000 
0.128288 0.366415 -1.319482 110 99 78 0.595964 -0.801664 0.046494 0.000000 
0.154740 0.343889 -1.280185 101 89 53 -0.784857 0.602471 0.145012 0.000000 
0.174031 0.333325 -0.925955 113 108 93 0.788634 -0.611797 -0.061322 0.000000 
0.165320 0.347537 -1.127224 114 106 84 0.974674 -0.193934 0.111356 0.000000 
0.204843 0.348988 -0.309847 59 61 43 0.525351 0.809072 -0.263455 0.000000 
0.194187 0.336462 -0.284593 51 53 37 0.986625 0.119915 -0.110417 0.000000 
0.219032 0.352063 -0.276121 119 122 116 0.678772 0.732846 0.046959 0.000000 
0.172935 0.322727 -0.689390 79 76 51 -0.237218 0.950228 0.201974 0.000000 
0.146956 0.333449 -1.243199 126 119 100 -0.001044 0.997400 0.072063 0.000000 
0.163729 0.336363 -0.643293 67 69 53 0.867554 -0.475193 -0.146772 0.000000 
0.165516 0.356028 -1.091204 122 119 107 0.915181 0.355507 -0.189889 0.000000 
0.163522 0.333344 -0.978566 111 101 81 0.668966 -0.700596 -0.248293 0.000000 
0.178395 0.332844 -0.761601 81 75 45 0.906751 -0.414398 -0.077956 0.000000 
0.160052 0.348951 -1.268110 105 91 52 -0.850682 0.513864 0.110833 0.000000 
0.120491 0.352921 -1.582481 105 101 80 0.849547 0.481360 -0.215782 0.000000 
0.183037 0.322236 -0.536399 67 69 47 0.262035 -0.916400 -0.302571 0.000000 
0.207082 0.330060 -0.248319 56 62 47 0.166265 -0.979115 -0.117001 0.000000 
0.177166 0.315361 -0.864337 134 128 115 0.773537 0.221675 -0.593717 0.000000 
0.141798 0.336978 -1.423625 101 95 74 -0.297624 0.954619 -0.011115 0.000000 
0.117398 0.370726 -1.528770 85 82 62 0.651318 -0.758230 -0.029541 0.000000 
0.158842 0.353893 -1.734965 97 90 67 -0.664095 0.738378 -0.117368 0.000000 
0.159885 0.354654 -1.370809 111 98 61 0.873156 -0.478191 -0.094510 0.000000 
0.142314 0.376639 -1.505313 96 86 43 -0.165502 -0.984794 -0.052820 0.000000 
0.175074 0.344236 -0.583566 52 54 40 0.623583 -0.765513 -0.158538 0.000000 
0.146281 0.329579 -1.057783 113 106 88 0.245672 -0.911458 -0.329985 0.000000 
0.152929 0.333834 -1.102554 105 97 73 -0.190629 0.973346 -0.127507 0.000000 
0.184707 0.323428 -0.360134 87 93 81 0.499725 0.866099 0.012123 0.000000 
0.143938 0.365512 -1.224255 107 98 65 0.219337 -0.971350 -0.091495 0.000000 
0.163119 0.339502 -1.057423 107 98 71 0.641309 -0.742811 -0.192239 0.000000 
0.141279 0.375850 -1.453299 97 84 46 0.053645 -0.998214 0.026296 0.000000 
0.129837 0.347788 -1.776739 121 119 101 -0.264091 -0.908999 0.322454 0.000000 
0.156871 0.353062 -1.411466 108 94 52 -0.718591 0.692670 -0.061923 0.000000 
0.161578 0.361762 -1.671193 105 94 52 0.972350 -0.224956 -0.062693 0.000000 
0.179052 0.343642 -0.680405 94 94 70 0.637617 0.761885 -0.113913 0.000000 
0.128143 0.347917 -1.406332 94 90 73 -0.674491 -0.736970 0.044019 0.000000 
0.156620 0.329162 -0.985757 110 100 74 -0.633115 0.773496 0.029480 0.000000 
0.164875 0.356221 -1.138435 123 120 108 -0.925357 -0.379077 -0.003829 0.000000 
0.213925 0.332805 -0.154684 80 80 57 0.406430 -0.904272 -0.130789 0.000000 
0.155733 0.340964 -1.238653 94 85 54 -0.800852 0.592312 -0.088340 0.000000 
0.174796 0.320937 -0.510892 100 102 94 0.778811 0.625042 0.052680 0.000000 
0.120392 0.374106 -1.552091 73 71 45 -0.463401 0.884174 0.059128 0.000000 
0.128356 0.354869 -1.166284 128 124 113 0.991782 -0.127937 0.001093 0.000000 
0.200993 0.335526 -0.144808 72 75 51 0.773360 0.612937 0.161936 0.000000 
0.180700 0.323545 -0.599033 66 68 45 0.412065 -0.903749 0.115937 0.000000 
0.216721 0.361131 -0.156867 126 134 127 0.372878 0.927679 -0.019354 0.000000 
0.183048 0.324810 -0.650226 84 83 45 0.803776 -0.577946 -0.141144 0.000000 
0.150774 0.326882 -0.955002 112 107 86 -0.322963 -0.942525 0.085684 0.000000 
0.224397 0.336101 -0.158449 120 123 119 0.965034 -0.211710 -0.154561 0.000000 
0.124432 0.345861 -1.620354 106 104 88 -0.532435 -0.832023 -0.155726 0.000000 
0.193060 0.328716 -0.518378 54 56 35 0.916264 -0.399800 -0.024906 0.000000 
0.165705 0.353458 -1.059375 111 104 88 0.899859 0.424199 0.101530 0.000000 
0.160107 0.363746 -1.403029 111 102 74 0.919499 0.366962 -0.140925 0.000000 
0.157200 0.369158 -1.434641 110 97 57 -0.857232 -0.495063 -0.141655 0.000000 
0.144177 0.345956 -1.518079 91 82 40 0.807917 -0.586414 -0.058215 0.000000 
0.219455 0.333478 -0.163171 71 75 62 0.571217 -0.808606 -0.140950 0.000000 
0.130701 0.343577 -1.628671 108 103 78 -0.339787 -0.939865 0.034620 0.000000 
0.211601 0.355846 -0.134089 94 92 66 0.088743 -0.971175 -0.221233 0.000000 
0.140247 0.344759 -1.619219 90 83 53 -0.265983 0.960847 -0.077631 0.000000 
0.127107 0.380253 -1.618785 67 63 22 -0.456163 0.889848 0.009255 0.000000 
0.140451 0.370188 -1.325547 103 93 59 -0.104097 0.991784 0.074355 0.000000 
0.114373 0.374200 -1.717885 88 89 72 0.964557 -0.251569 0.079642 0.000000 
0.165345 0.330255 -0.911095 106 99 78 0.576982 -0.782269 -0.234836 0.000000 
0.156370 0.335320 -1.074804 107 95 71 -0.654066 0.722751 -0.223225 0.000000 
0.138440 0.340221 -1.000862 111 103 84 -0.958443 -0.281895 -0.043850 0.000000 
0.137759 0.333167 -1.055287 117 117 107 0.942172 0.281143 -0.182400 0.000000 
0.175358 0.345200 -0.760529 73 72 51 -0.721078 -0.685832 0.098396 0.000000 
0.156539 0.357259 -0.970285 107 99 80 0.234680 0.965649 -0.111569 0.000000 
0.181422 0.323806 -0.616302 66 67 44 0.512833 -0.850869 -0.114123 0.000000 
0.166581 0.324478 -0.808359 92 84 59 0.277257 -0.949639 0.145995 0.000000 
0.120792 0.360565 -1.443117 78 74 55 0.991428 -0.130653 0.001098 0.000000 
0.159213 0.366140 -1.402134 112 104 79 0.828419 0.552758 -0.090451 0.000000 
0.164542 0.352612 -0.976444 118 111 92 -0.642769 -0.764796 -0.043986 0.000000 
0.195921 0.325367 -0.372685 67 70 47 -0.575215 0.815007 0.069939 0.000000 
0.151565 0.349568 -1.450702 105 93 48 0.603877 -0.789007 -0.113135 0.000000 
0.154139 0.341202 -1.214439 98 88 57 -0.899048 0.404212 0.168302 0.000000 
0.129740 0.350697 -1.185695 89 85 68 0.994996 0.040679 -0.091254 0.000000 
0.198249 0.339335 -0.203569 75 79 63 -0.983092 -0.182821 0.010348 0.000000 
0.160978 0.341464 -1.104429 109 99 69 -0.788306 0.606952 -0.100915 0.000000 
0.142068 0.342278 -1.544492 92 83 42 -0.600359 0.797152 -0.064171 0.000000 
0.120636 0.368694 -1.455255 88 85 70 -0.926130 0.374393 -0.045978 0.000000 
0.199316 0.327565 -0.311079 59 64 48 -0.350885 0.934379 -0.061766 0.000000 
0.153072 0.329248 -0.794668 93 88 64 0.833854 0.526566 0.165577 0.000000 
0.150155 0.334235 -1.161723 108 101 78 -0.037008 0.977740 -0.206531 0.000000 
0.196818 0.335881 -0.480780 86 89 71 0.909174 0.415660 0.025072 0.000000 
0.131898 0.341891 -1.208940 114 107 93 -0.671483 -0.725806 0.149386 0.000000 
0.194785 0.340955 -0.428927 62 66 47 0.779372 0.613106 0.129153 0.000000 
0.217420 0.345413 -0.243626 77 81 67 0.965822 0.234100 0.111293 0.000000 
0.156532 0.326783 -0.760559 112 112 97 0.558326 0.825289 -0.084682 0.000000 
0.116424 0.357112 -1.664503 116 111 86 0.845160 0.519315 0.126556 0.000000 
0.126907 0.371170 -1.381913 103 94 72 -0.382555 0.922634 -0.048978 0.000000 
0.153016 0.370444 -1.411265 110 96 57 0.398057 0.891588 0.215920 0.000000 
0.161627 0.327466 -0.894633 114 105 82 0.507897 -0.759395 0.406644 0.000000 
0.191221 0.335701 -0.300390 80 81 62 -0.997329 -0.007372 -0.072667 0.000000 
0.181635 0.341421 -0.397275 52 56 38 0.840533 -0.532001 -0.102363 0.000000 
0.182063 0.344376 -0.533409 62 62 33 -0.064007 -0.997883 -0.011542 0.000000 
0.178078 0.328556 -0.730315 63 62 35 0.777394 -0.617473 0.119941 0.000000 
0.179656 0.335353 -0.766976 74 69 40 0.899750 -0.434409 -0.041692 0.000000 
0.175906 0.337842 -0.478754 48 49 32 0.960651 -0.266635 0.077822 0.000000 
0.118309 0.357831 -1.645814 92 91 73 0.904372 0.424720 -0.041534 0.000000 
0.160912 0.351137 -0.897285 114 110 94 0.192709 0.973620 0.122175 0.000000 
0.189358 0.345252 -0.325394 57 58 35 -0.855830 0.507212 0.101442 0.000000 
0.165935 0.355738 -1.029710 129 125 108 0.952418 0.274966 -0.131505 0.000000 
0.132078 0.376787 -1.486697 85 80 39 0.193462 -0.974799 0.111085 0.000000 
0.143701 0.361741 -1.127997 100 91 62 0.118448 -0.988629 -0.092647 0.000000 
0.157462 0.353884 -1.494308 97 85 39 0.681775 -0.731560 0.001383 0.000000 
0.175654 0.326460 -0.454529 78 82 69 0.996477 0.066432 0.051185 0.000000 
0.186132 0.322159 -0.384767 72 75 53 0.036600 -0.998660 -0.036600 0.000000 
0.183750 0.321705 -0.581111 60 61 38 0.381787 -0.923845 -0.027364 0.000000 
0.115271 0.363362 -1.551734 104 101 69 0.885893 0.460115 0.059060 0.000000 
0.156773 0.346725 -0.822162 67 63 31 -0.578231 0.802352 0.147920 0.000000 
0.218894 0.335991 -0.210163 73 77 63 0.832587 -0.553691 0.015039 0.000000 
0.163339 0.354720 -1.167613 99 91 68 0.943520 0.328237 -0.045052 0.000000 
0.161697 0.360409 -1.547889 102 96 59 0.987960 -0.148713 0.042654 0.000000 
0.146252 0.338743 -1.357169 102 93 66 0.613142 -0.786264 0.076462 0.000000 
0.166186 0.345071 -1.027631 117 107 76 0.990050 -0.125629 -0.063391 0.000000 
0.147475 0.349145 -0.907821 116 108 84 0.961483 -0.268409 -0.059226 0.000000 
0.161697 0.342699 -1.113058 106 96 66 0.819420 -0.563260 -0.106248 0.000000 
0.138319 0.341976 -1.275424 88 83 65 0.495952 0.846565 -0.193286 0.000000 
0.147663 0.368292 -1.262172 101 93 62 0.273587 0.961810 0.008512 0.000000 
0.178740 0.322563 -0.440135 82 84 76 0.619334 0.783734 0.046769 0.000000 
0.159884 0.364285 -1.452884 111 99 59 0.982289 0.184253 0.034034 0.000000 
0.145084 0.356180 -1.000110 110 103 83 0.360674 -0.932691 -0.001266 0.000000 
0.151767 0.349132 -1.408032 108 94 53 -0.742779 0.663978 -0.086098 0.000000 
0.167955 0.336125 -0.957407 110 101 74 0.908734 -0.410088 -0.077658 0.000000 
0.168485 0.330247 -0.596325 61 62 45 -0.980338 -0.191779 0.046456 0.000000 
0.192651 0.342836 -0.818132 121 110 76 0.738562 -0.192735 -0.646049 0.000000 
0.122610 0.352487 -1.507214 89 86 66 0.976615 0.212928 -0.029739 0.000000 
0.171941 0.346768 -0.935085 126 115 86 -0.760243 -0.643953 0.085764 0.000000 
0.155500 0.327516 -0.785380 100 99 76 0.821145 0.544928 -0.169633 0.000000 
0.158335 0.360624 -1.309968 112 97 57 -0.873420 -0.486136 0.028437 0.000000 
0.219659 0.340840 -0.191241 75 80 63 0.976089 -0.123730 -0.178721 0.000000 
0.155743 0.354206 -1.603260 100 88 42 0.646000 -0.715838 -0.265066 0.000000 
0.163073 0.334519 -0.990300 112 101 75 0.573670 -0.777991 -0.256187 0.000000 
0.162375 0.359022 -1.077238 115 111 94 -0.438135 -0.894351 0.090409 0.000000 
0.190090 0.327643 -0.325157 53 56 40 0.861463 0.492058 -0.125540 0.000000 
0.165856 0.328677 -0.886697 106 98 76 0.137097 -0.987803 0.073822 0.000000 
0.182554 0.347132 -0.368503 76 78 64 0.238813 -0.970851 -0.020401 0.000000 
0.204801 0.353009 -0.215119 50 55 37 0.281249 -0.958748 0.041250 0.000000 
0.148835 0.341945 -1.361903 101 91 59 0.858621 -0.477673 -0.186010 0.000000 
0.133080 0.363651 -1.217883 113 104 80 0.350916 -0.933570 -0.072832 0.000000 
0.140869 0.337255 -0.953610 96 94 81 -0.992181 -0.114005 -0.050794 0.000000 
0.126064 0.368837 -1.391139 103 93 56 0.647807 -0.749541 -0.136144 0.000000 
0.191964 0.322100 -0.463812 54 57 40 -0.587273 0.805527 0.078973 0.000000 
0.169645 0.310979 -0.853517 133 127 108 0.567146 0.580690 -0.584076 0.000000 
0.172768 0.346032 -0.945353 126 125 116 -0.858653 -0.422414 0.290314 0.000000 
0.135051 0.378761 -1.529030 79 73 29 0.134454 -0.989447 -0.054012 0.000000 
0.152381 0.373316 -1.465537 118 105 63 -0.474171 -0.864664 0.165886 0.000000 
0.176154 0.321936 -0.587573 69 71 50 0.002950 -0.999991 -0.002950 0.000000 
0.167276 0.351371 -1.002147 128 118 88 -0.837389 -0.517957 0.174643 0.000000 
0.172999 0.324411 -0.720853 68 65 36 -0.408354 0.902900 0.134234 0.000000 
0.129656 0.342390 -1.593349 120 117 102 0.127431 0.991743 -0.014405 0.000000 
0.171791 0.340642 -0.952599 99 95 78 0.994304 -0.105638 0.014158 0.000000 
0.155421 0.363251 -1.297374 101 89 54 0.834911 0.363210 0.413525 0.000000 
0.156330 0.336642 -1.120963 111 100 71 0.794908 -0.602984 0.067317 0.000000 
0.178016 0.341563 -0.748814 70 68 44 0.909907 0.354415 0.215542 0.000000 
0.145463 0.330200 -0.953711 130 122 98 -0.712635 -0.695003 0.095508 0.000000 
0.160016 0.322833 -0.896708 129 122 105 -0.637809 0.763904 -0.098237 0.000000 
0.199545 0.327869 -0.340040 69 68 43 -0.600662 0.784323 -0.155058 0.000000 
0.162673 0.357727 -1.142400 119 109 80 0.748389 0.649799 0.132947 0.000000 
0.133878 0.341939 -1.235031 100 95 79 0.574928 0.812430 0.097028 0.000000 
0.138514 0.339632 -1.477082 93 88 62 0.099515 0.991716 -0.081213 0.000000 
0.159755 0.335287 -1.150214 89 85 73 0.606486 -0.731966 0.310482 0.000000 
0.185867 0.342643 -0.570645 65 67 44 -0.573053 -0.812189 0.109361 0.000000 
0.202616 0.355330 -0.149749 76 74 42 0.041200 -0.998301 -0.041200 0.000000 
0.207608 0.330928 -0.223717 63 68 49 -0.162485 0.985430 -0.050265 0.000000 
0.169737 0.341229 -0.626404 57 57 32 0.697482 -0.706405 -0.120461 0.000000 
0.151239 0.334665 -1.171545 101 94 74 0.229587 -0.944470 -0.235086 0.000000 
0.178555 0.332273 -0.852353 104 95 68 -0.803064 -0.298191 0.515917 0.000000 
0.155258 0.325869 -0.972883 100 98 85 -0.430249 0.885292 0.176475 0.000000 
0.174925 0.338941 -0.864647 108 100 74 -0.938086 0.178223 0.297038 0.000000 
0.141371 0.343985 -1.624939 92 83 47 -0.078911 0.994723 -0.065574 0.000000 
0.162050 0.357584 -1.221893 112 99 64 0.897580 0.416784 -0.143670 0.000000 
0.197288 0.334564 -0.458090 51 54 34 0.995186 0.036209 -0.091070 0.000000 
0.146775 0.347515 -1.469025 96 85 41 0.655615 -0.735083 0.172691 0.000000 
0.170055 0.347166 -0.893374 113 109 93 -0.563060 -0.820706 0.096979 0.000000 
0.157796 0.365371 -1.370028 110 97 60 -0.846434 -0.519436 -0.117199 0.000000 
0.154028 0.349559 -1.445455 106 94 49 0.568709 -0.804037 -0.173479 0.000000 
0.127289 0.379138 -1.601745 66 61 19 0.408318 -0.895990 -0.174581 0.000000 
0.159929 0.365381 -1.443110 120 107 62 0.930350 0.267635 -0.250642 0.000000 
0.172049 0.300936 -0.850733 139 128 105 0.603978 0.738552 -0.299586 0.000000 
0.128703 0.345955 -1.669908 116 115 90 0.383087 0.881852 -0.274921 0.000000 
0.143881 0.363061 -1.168566 104 95 73 0.016940 -0.988164 -0.152460 0.000000 
0.154882 0.329043 -1.008163 103 96 76 0.522988 -0.847896 -0.086927 0.000000 
0.168102 0.336254 -0.957544 110 101 75 -0.934947 0.347795 0.070088 0.000000 
0.138695 0.347247 -1.873345 105 100 79 0.038944 -0.993635 0.105706 0.000000 
0.120071 0.353123 -1.610518 108 103 82 -0.895944 -0.439081 -0.067025 0.000000 
0.173110 0.330534 -0.497240 54 57 35 0.995928 -0.033668 -0.083628 0.000000 
0.192503 0.334771 -0.546902 90 91 70 -0.969968 -0.220734 -0.102168 0.000000 
0.179599 0.334827 -0.764681 63 61 38 0.960905 -0.258557 -0.099049 0.000000 
0.152771 0.352903 -1.527680 96 86 36 -0.549769 0.829703 0.096678 0.000000 
0.140707 0.365186 -1.221445 106 97 64 0.311709 -0.948062 -0.063377 0.000000 
0.166927 0.334530 -0.956710 105 97 71 0.709022 -0.700287 -0.082986 0.000000 
0.144669 0.377222 -1.520286 92 86 41 -0.147323 -0.986472 -0.071893 0.000000 
0.200142 0.352670 -0.162104 54 56 36 0.754817 -0.471966 0.455521 0.000000 
0.139947 0.372841 -1.436336 96 87 40 -0.022082 0.982089 0.187120 0.000000 
0.150558 0.346904 -1.419446 105 93 52 -0.884082 0.459499 -0.085196 0.000000 
0.179652 0.342424 -0.444242 56 59 36 0.744305 -0.663055 -0.079799 0.000000 
0.193263 0.328226 -0.500857 68 70 47 -0.822468 0.555643 0.121684 0.000000 
0.143564 0.336070 -1.355701 107 100 82 -0.294182 0.955152 -0.033800 0.000000 
0.137365 0.338603 -1.325005 96 93 78 -0.328945 -0.944309 0.008755 0.000000 
0.189854 0.322923 -0.369158 76 78 56 0.128603 -0.987526 0.090848 0.000000 
0.162336 0.340358 -0.710914 49 49 32 0.818966 -0.571731 0.049166 0.000000 
0.160320 0.360403 -1.348942 119 103 61 -0.919688 -0.388431 0.057397 0.000000 
0.136117 0.376481 -1.489677 89 78 41 -0.007939 0.985586 -0.168990 0.000000 
0.147158 0.337038 -1.277264 104 97 77 -0.126879 0.991455 -0.030316 0.000000 
0.139877 0.339630 -1.544454 93 86 53 -0.448216 0.892345 0.053132 0.000000 
0.198489 0.337433 -0.440702 88 92 81 -0.711259 -0.670794 0.210109 0.000000 
0.159869 0.362373 -1.463002 115 102 55 0.994150 0.009779 -0.107564 0.000000 
0.116508 0.367073 -1.711365 84 83 66 0.920141 0.389443 -0.040924 0.000000 
0.171575 0.346079 -0.716578 57 56 33 -0.103988 0.979933 -0.170051 0.000000 
0.214831 0.350320 -0.259734 100 107 99 -0.605730 -0.789638 0.097793 0.000000 
0.176517 0.343160 -0.767170 64 63 40 0.732231 0.634600 0.247226 0.000000 
0.171062 0.343344 -0.630177 56 57 32 0.633061 -0.773429 0.032285 0.000000 
0.151746 0.345401 -1.398568 102 93 64 0.674150 -0.677368 -0.294438 0.000000 
0.163268 0.358292 -1.065517 120 112 89 0.663518 0.733044 0.149632 0.000000 
0.172806 0.342362 -0.595830 55 54 23 0.674158 -0.738364 0.018145 0.000000 
0.159139 0.329199 -0.960294 115 105 79 0.634035 -0.762334 -0.129791 0.000000 
0.214947 0.333657 -0.201140 62 66 46 -0.347729 0.934771 0.072719 0.000000 
0.138477 0.334481 -1.062450 123 117 102 0.817320 0.561079 -0.131066 0.000000 
0.158096 0.336188 -1.106464 112 102 74 -0.712784 0.698384 -0.064799 0.000000 
0.156496 0.362416 -1.114037 105 98 72 0.114873 0.989762 0.084704 0.000000 
0.175754 0.341128 -0.512924 46 49 35 -0.842409 0.528486 0.105121 0.000000 
0.170619 0.322812 -0.652892 81 77 50 -0.217277 -0.974713 0.052195 0.000000 
0.142084 0.348103 -1.762325 93 88 69 0.119443 -0.992383 0.030140 0.000000 
0.192869 0.343318 -0.125178 102 98 63 0.934512 0.302219 -0.188017 0.000000 
0.154062 0.333567 -1.116174 82 78 63 -0.016118 -0.996075 -0.087036 0.000000 
0.162859 0.344408 -1.125479 103 93 64 0.714785 -0.694404 0.082979 0.000000 
0.129955 0.347314 -1.700777 110 108 87 0.304127 0.950880 0.057746 0.000000 
0.153607 0.340076 -1.267230 108 96 66 0.642878 -0.760031 -0.095187 0.000000 
0.149021 0.340522 -1.350069 110 101 76 0.750622 -0.594441 0.288455 0.000000 
0.170190 0.331764 -0.896901 110 105 86 0.628377 -0.773499 -0.082719 0.000000 
0.142425 0.332186 -1.082519 110 104 87 -0.475044 -0.855678 -0.205303 0.000000 
0.192459 0.344528 -0.419427 65 67 45 0.544238 0.836749 -0.060471 0.000000 
0.132621 0.344446 -1.080083 114 106 86 -0.964922 -0.255898 0.058669 0.000000 
0.151070 0.351144 -1.647051 104 92 42 0.749372 -0.647253 0.139662 0.000000 
0.225415 0.344996 -0.154848 123 121 89 0.979409 0.201881 -0.001154 0.000000 
0.137219 0.339978 -1.562667 107 100 71 -0.260604 -0.962327 0.077545 0.000000 
0.114305 0.371988 -1.720967 96 94 69 0.989917 0.131912 0.051618 0.000000 
0.162176 0.358018 -1.149168 119 109 79 -0.817496 -0.512298 0.263156 0.000000 
0.158726 0.361908 -1.320496 106 95 64 -0.884857 -0.453013 0.108667 0.000000 
0.148289 0.327171 -0.978384 116 111 94 -0.713180 -0.695679 -0.086048 0.000000 
0.157080 0.336590 -0.682758 107 107 93 -0.962514 0.259968 -0.077356 0.000000 
0.155949 0.368100 -1.357846 118 104 66 -0.623185 -0.778622 -0.073401 0.000000 
0.133067 0.339180 -1.124635 115 107 92 -0.916618 -0.387747 0.097279 0.000000 
0.159348 0.325033 -0.903588 118 110 89 0.472199 -0.870752 -0.137183 0.000000 
0.137812 0.344686 -0.924413 135 131 125 -0.978058 -0.071684 -0.195612 0.000000 
0.222930 0.346985 -0.146169 103 103 87 0.954777 -0.018624 -0.296738 0.000000 
0.192473 0.332882 -0.525037 73 74 51 0.989900 -0.121567 -0.072940 0.000000 
0.210759 0.335474 -0.280669 55 57 34 0.863893 -0.503147 -0.023055 0.000000 
0.159209 0.347386 -1.308178 103 93 66 -0.764796 0.641856 0.055751 0.000000 
0.159494 0.352182 -0.829664 77 75 58 -0.475463 0.878721 -0.042233 0.000000 
0.222357 0.354392 -0.129076 53 52 23 -0.168292 -0.958071 -0.231898 0.000000 
0.161212 0.361431 -1.497859 112 97 61 0.992283 0.109751 -0.057704 0.000000 
0.161937 0.359846 -1.399422 121 111 76 -0.997558 -0.001042 0.069839 0.000000 
0.183188 0.331940 -0.672152 57 58 34 0.963340 -0.265877 -0.035862 0.000000 
0.175519 0.335385 -0.478773 57 58 39 0.967068 -0.248887 -0.053244 0.000000 
0.155748 0.324800 -0.790569 103 102 86 0.410250 0.905331 -0.109864 0.000000 
0.134502 0.352757 -1.098080 97 88 65 0.972885 -0.222620 0.062727 0.000000 
0.132281 0.347098 -1.700642 106 103 81 0.296923 0.952468 0.068125 0.000000 
0.120182 0.376636 -1.623614 62 58 20 0.508428 -0.858585 -0.065829 0.000000 
0.229488 0.348170 -0.126112 91 92 74 0.982808 0.142137 -0.117840 0.000000 
0.127779 0.348108 -1.824862 119 119 104 -0.596580 -0.799732 0.067240 0.000000 
0.178430 0.338674 -0.425731 57 60 39 0.965170 -0.209142 -0.157181 0.000000 
0.137417 0.385478 -1.699816 77 74 40 0.177169 -0.984148 -0.008001 0.000000 
0.148993 0.346096 -1.404722 105 92 51 0.793529 -0.604115 0.073183 0.000000 
0.115955 0.365344 -1.836939 104 100 79 -0.900400 -0.428958 -0.072635 0.000000 
0.198518 0.341011 -0.177406 61 62 45 0.993349 0.109879 -0.034407 0.000000 
0.159470 0.351677 -0.910798 113 108 90 -0.142020 -0.987098 0.073944 0.000000 
0.166418 0.349199 -1.089971 119 111 86 0.993597 0.079893 0.079893 0.000000 
0.208784 0.347120 -0.302946 67 70 57 0.618142 0.762325 -0.191732 0.000000 
0.168039 0.319604 -0.863479 106 99 75 -0.670035 0.392095 0.630329 0.000000 
0.159126 0.344091 -0.773038 64 62 37 -0.913715 0.339215 0.223737 0.000000 
0.162517 0.338388 -1.041885 98 90 65 -0.829514 0.550613 0.093446 0.000000 
0.193381 0.330068 -0.302767 48 51 36 0.580135 0.750479 -0.316583 0.000000 
0.209905 0.354925 -0.174494 66 70 49 -0.109478 -0.993974 -0.005420 0.000000 
0.159085 0.358671 -1.046689 102 96 74 0.440842 0.894122 0.078771 0.000000 
0.152363 0.324453 -0.950784 109 103 86 -0.074053 -0.992316 -0.099118 0.000000 
0.220432 0.344125 -0.252825 76 81 64 -0.998556 0.021912 0.049041 0.000000 
0.163450 0.346589 -1.185168 100 93 72 -0.902847 0.427947 -0.041587 0.000000 
0.143259 0.342959 -1.487249 93 84 46 0.777427 -0.625664 -0.064428 0.000000 
0.184255 0.344644 -0.440811 56 60 40 -0.147931 0.985814 -0.079291 0.000000 
0.159553 0.346992 -1.233057 104 91 55 -0.618106 0.783695 0.061382 0.000000 
0.139388 0.336872 -1.415301 107 102 84 -0.058237 0.982896 0.174711 0.000000 
0.142134 0.368544 -1.275559 101 90 63 0.005857 0.975699 -0.219035 0.000000 
0.126014 0.345025 -1.687966 134 132 114 -0.512273 -0.846938 -0.142380 0.000000 
0.194984 0.326531 -0.330375 74 79 61 -0.101747 0.994492 0.025163 0.000000 
0.181721 0.343237 -0.617571 60 64 43 0.520283 0.852260 0.054400 0.000000 
0.155273 0.328890 -0.999303 103 96 76 0.729282 -0.669135 -0.142849 0.000000 
0.150124 0.349818 -1.703802 96 88 58 -0.593911 0.798205 0.100688 0.000000 
0.136846 0.378763 -1.504983 81 76 35 -0.009949 -0.991551 0.129333 0.000000 
0.134412 0.363784 -1.238786 110 101 74 0.504045 -0.863499 -0.017567 0.000000 
0.181346 0.344271 -0.529390 57 58 35 -0.091637 0.994763 -0.045267 0.000000 
0.188123 0.320476 -0.374984 110 108 94 0.036137 0.995403 -0.088699 0.000000 
0.144613 0.344089 -1.666366 99 96 74 -0.333638 0.941197 0.053226 0.000000 
0.163985 0.347155 -0.770565 59 59 38 0.419470 -0.907768 0.001299 0.000000 
0.122085 0.367330 -1.441294 84 80 60 -0.924151 0.336183 0.181454 0.000000 
0.146338 0.366629 -1.228147 104 96 64 0.102613 -0.969119 -0.224228 0.000000 
0.188554 0.327554 -0.567033 69 72 51 0.767687 -0.627565 -0.129687 0.000000 
0.195712 0.348801 -0.274760 60 62 44 -0.843323 0.535905 -0.040158 0.000000 
0.166947 0.350573 -0.977237 118 114 101 0.740798 0.669154 0.058748 0.000000 
0.173634 0.337756 -0.935220 123 120 110 -0.953026 0.296297 0.062851 0.000000 
0.137470 0.350802 -1.029240 104 94 72 0.945977 -0.322924 -0.029126 0.000000 
0.162331 0.348184 -1.202444 102 94 69 0.817162 -0.570146 -0.084732 0.000000 
0.140322 0.367835 -1.257847 103 93 62 0.292097 -0.946286 -0.138645 0.000000 
0.128884 0.345270 -1.602774 126 123 106 -0.397976 -0.914123 -0.077422 0.000000 
0.120742 0.378765 -1.663096 69 64 20 -0.674959 0.720462 0.159260 0.000000 
0.132669 0.354509 -1.127996 90 87 71 -0.935528 0.353197 -0.006330 0.000000 
0.141322 0.364747 -1.172422 97 89 67 -0.156876 0.986578 0.045320 0.000000 
0.154633 0.349935 -1.867125 93 91 78 0.221000 -0.965420 0.138286 0.000000 
0.164545 0.353735 -1.355176 132 127 117 0.773357 -0.627715 -0.088841 0.000000 
0.202080 0.354210 -0.135898 124 123 96 0.439529 -0.891697 -0.108127 0.000000 
0.183757 0.343438 -0.644572 116 120 105 0.847621 0.519509 -0.107931 0.000000 
0.144965 0.347559 -1.533323 91 82 36 0.715705 -0.669331 0.199408 0.000000 
0.172265 0.341197 -0.573670 47 49 36 -0.859777 0.499271 -0.107293 0.000000 
0.116238 0.364562 -1.814911 91 90 73 0.853161 0.520689 -0.031599 0.000000 
0.176104 0.346302 -0.750321 74 71 40 0.485261 0.873470 -0.039641 0.000000 
0.185591 0.321942 -0.465254 73 73 47 -0.251686 0.961571 0.109709 0.000000 
0.141139 0.363131 -1.209618 105 97 66 0.263416 -0.958939 -0.105107 0.000000 
0.174899 0.328633 -0.778499 88 83 58 0.728534 -0.682732 -0.055821 0.000000 
0.147546 0.333369 -1.210986 114 108 92 0.374232 -0.924178 0.076456 0.000000 
0.158871 0.338676 -1.206366 107 101 88 -0.069032 0.252280 0.965189 0.000000 
0.194845 0.333766 -0.516413 76 81 67 0.999303 -0.019514 0.031838 0.000000 
0.134557 0.366144 -1.256793 101 90 71 0.416784 -0.897580 -0.143670 0.000000 
0.157906 0.343940 -0.783366 52 53 36 -0.902264 0.430596 0.022523 0.000000 
0.157290 0.329405 -0.770920 58 60 43 0.716201 0.279143 0.639636 0.000000 
0.152279 0.348292 -1.441332 105 94 53 -0.716557 0.696771 -0.032507 0.000000 
0.218851 0.342081 -0.249003 72 77 64 -0.997394 0.067061 0.026611 0.000000 
0.146965 0.355140 -0.947812 106 99 74 0.692150 -0.720575 -0.041216 0.000000 
0.178585 0.339330 -0.794492 108 98 73 -0.964572 -0.261725 0.033176 0.000000 
0.146195 0.337886 -1.259927 125 118 99 0.151563 0.979615 0.131848 0.000000 
0.190917 0.325301 -0.321958 91 97 85 -0.566446 -0.803351 0.183753 0.000000 
0.172600 0.355026 -0.830821 135 128 101 -0.063466 0.839162 0.540166 0.000000 
0.157601 0.339724 -1.175503 95 89 65 0.826958 -0.559289 0.057760 0.000000 
0.148431 0.335247 -1.195649 110 103 83 -0.336716 0.939945 -0.055903 0.000000 
0.160855 0.353421 -1.282626 110 95 53 0.984614 -0.174561 -0.007986 0.000000 
0.192055 0.335110 -0.293861 76 77 60 -0.984384 -0.133741 0.114463 0.000000 
0.167396 0.334750 -0.953977 112 105 82 0.706605 -0.700729 -0.098425 0.000000 
0.122459 0.358001 -1.795208 88 86 68 0.701160 0.707015 -0.092219 0.000000 
0.180067 0.324867 -0.388750 85 90 81 0.935723 0.350734 0.037532 0.000000 
0.117893 0.371579 -1.550332 85 83 57 0.690252 -0.714003 0.117269 0.000000 
0.181420 0.336826 -0.706028 60 58 31 0.979593 0.099060 -0.174884 0.000000 
0.126233 0.348754 -1.704489 120 118 100 0.499326 0.865224 -0.045393 0.000000 
0.191834 0.339332 -0.542223 81 82 67 -0.866564 -0.490534 -0.091887 0.000000 
0.166530 0.344871 -1.024418 116 106 76 0.965762 -0.244288 -0.087336 0.000000 
0.181046 0.324151 -0.676072 74 76 58 0.704256 -0.709835 -0.012551 0.000000 
0.194008 0.348091 -0.306556 53 57 37 -0.577644 0.815415 -0.037764 0.000000 
0.118207 0.358726 -1.602718 95 91 66 -0.931586 -0.349176 0.101113 0.000000 
0.178749 0.337157 -0.420307 48 49 31 -0.983626 0.163738 0.075296 0.000000 
0.197753 0.332648 -0.265726 80 79 53 -0.867323 -0.493019 0.068436 0.000000 
0.157624 0.372896 -1.500438 117 106 63 -0.919414 -0.389853 -0.051892 0.000000 
0.164175 0.341841 -0.685483 63 62 36 0.814990 -0.579396 0.009588 0.000000 
0.207739 0.343495 -0.318955 62 67 53 0.909522 0.349593 -0.224842 0.000000 
0.163052 0.331939 -0.954661 110 100 73 -0.565415 0.818325 0.103199 0.000000 
0.220423 0.340698 -0.170561 101 103 86 -0.979769 -0.172469 -0.101524 0.000000 
0.165498 0.349917 -1.155742 117 109 82 0.997940 -0.007315 0.063743 0.000000 
0.171139 0.342214 -0.576609 55 59 42 0.788769 -0.611902 0.058480 0.000000 
0.114366 0.367525 -1.833521 111 109 95 0.991220 0.123761 0.046552 0.000000 
0.211505 0.332881 -0.198432 64 67 45 -0.434363 0.895263 0.099163 0.000000 
0.132901 0.342327 -1.653094 109 104 81 0.201441 0.968711 0.144986 0.000000 
0.163202 0.322850 -0.805986 93 86 61 -0.085970 0.991522 -0.097433 0.000000 
0.205305 0.332569 -0.204314 77 81 61 0.217854 0.970898 0.099482 0.000000 
0.123238 0.350625 -1.409549 122 117 103 -0.841268 -0.540326 0.017783 0.000000 
0.151092 0.351170 -1.822751 97 92 74 0.346538 -0.930896 0.115513 0.000000 
0.146000 0.335780 -1.265739 109 102 84 0.201014 -0.972198 -0.120102 0.000000 
0.176720 0.326722 -0.425147 77 75 39 0.964510 0.191858 -0.181417 0.000000 
0.176521 0.315112 -0.844224 158 144 113 -0.798655 -0.309618 0.516030 0.000000 
0.189197 0.339271 -0.524285 54 56 31 0.774514 0.620500 -0.122915 0.000000 
0.187216 0.330613 -0.604207 73 73 50 0.949038 -0.313825 0.028988 0.000000 
0.162044 0.355268 -1.818913 94 95 90 0.597169 -0.801353 0.034963 0.000000 
0.114478 0.366538 -1.639825 107 103 74 -0.999562 0.011163 -0.027399 0.000000 
0.161673 0.343899 -0.734784 56 57 38 0.710791 -0.670352 -0.213082 0.000000 
0.136022 0.385632 -1.687871 72 69 40 -0.362912 0.910865 0.196517 0.000000 
0.136564 0.349676 -1.040359 106 97 76 -0.993771 0.084218 0.072989 0.000000 
0.119228 0.370991 -1.860797 92 91 78 0.971986 -0.179620 0.151594 0.000000 
0.171660 0.344221 -0.610700 52 54 33 0.764616 -0.641245 0.064555 0.000000 
0.211295 0.332418 -0.223607 70 70 47 -0.404078 0.905304 -0.130938 0.000000 
0.186018 0.339738 -0.633972 104 106 87 0.932664 0.329256 -0.147408 0.000000 
0.128240 0.386010 -1.734246 79 75 53 -0.399694 0.912611 0.085941 0.000000 
0.119024 0.377457 -1.882692 75 75 66 -0.992913 0.118801 0.003270 0.000000 
0.158090 0.352906 -1.395008 107 93 51 0.616257 -0.770700 -0.162014 0.000000 
0.200004 0.353787 -0.159110 56 57 37 0.618641 -0.785466 0.018073 0.000000 
0.126069 0.352422 -1.250522 113 107 84 0.984055 0.177565 -0.010310 0.000000 
0.200209 0.349303 -0.202258 52 56 38 -0.862589 0.470638 -0.185583 0.000000 
0.181302 0.340290 -0.668794 70 72 51 -0.816828 -0.575013 0.046395 0.000000 
0.133751 0.356375 -1.135371 106 99 80 0.793434 -0.608529 0.012419 0.000000 
0.181635 0.344207 -0.446551 53 57 38 0.459349 -0.887715 -0.030982 0.000000 
0.155904 0.365940 -1.334417 114 100 63 -0.803839 -0.583408 -0.116094 0.000000 
0.156004 0.327352 -0.961080 118 108 83 0.473430 -0.874354 -0.106628 0.000000 
0.149552 0.367101 -1.157409 113 105 88 -0.180807 -0.976359 -0.118460 0.000000 
0.197789 0.348199 -0.254280 65 66 50 0.834101 -0.543102 -0.096519 0.000000 
0.131291 0.346949 -1.750251 122 118 101 -0.200577 -0.979424 -0.022286 0.000000 
0.145801 0.340731 -1.449542 100 93 64 0.318358 -0.938818 0.131407 0.000000 
0.145204 0.363328 -1.149108 98 90 62 0.208136 -0.973381 0.095967 0.000000 
0.137230 0.334922 -1.113491 86 82 67 -0.636623 -0.761276 -0.123169 0.000000 
0.171469 0.347067 -0.825036 71 64 38 0.572533 0.809240 0.131668 0.000000 
0.148932 0.369276 -1.345124 105 93 59 0.140688 0.977346 -0.158118 0.000000 
0.196879 0.327151 -0.408670 57 60 40 0.728884 -0.684625 0.004149 0.000000 
0.157633 0.354331 -1.764924 100 94 76 -0.467910 0.883232 0.031014 0.000000 
0.160650 0.358353 -1.481565 109 99 54 -0.986914 0.112824 0.115199 0.000000 
0.160460 0.347530 -0.802567 64 61 31 -0.217425 0.940329 0.261741 0.000000 
0.175809 0.322307 -0.584126 68 71 52 0.008001 -0.984148 0.177169 0.000000 
0.156991 0.369667 -1.404691 121 107 67 0.811300 0.581124 -0.063938 0.000000 
0.157238 0.337318 -1.151417 118 108 90 0.759338 -0.650262 0.023773 0.000000 
0.206428 0.353105 -0.217188 57 61 42 0.110889 -0.993614 0.020860 0.000000 
0.153528 0.360548 -1.031549 109 100 75 0.138321 0.990382 0.003320 0.000000 
0.161027 0.358020 -1.148908 98 88 65 -0.792567 -0.583439 0.177305 0.000000 
0.190624 0.343611 -0.472028 64 67 45 0.439075 0.876671 -0.196623 0.000000 
0.153005 0.360079 -1.035551 109 101 76 0.184002 0.975083 0.123919 0.000000 
0.160712 0.356992 -1.587709 103 92 51 0.863546 -0.489965 0.119258 0.000000 
0.147441 0.329700 -1.143822 110 106 92 0.315220 0.945659 0.079786 0.000000 
0.145868 0.333516 -1.240140 125 118 100 -0.584467 -0.745477 0.320410 0.000000 
0.157217 0.345801 -0.852970 73 65 41 0.904558 -0.414185 0.101122 0.000000 
0.203333 0.351786 -0.280437 59 63 45 -0.151641 -0.987404 0.045145 0.000000 
0.182389 0.322578 -0.543951 62 65 46 0.015434 0.999075 0.040128 0.000000 
0.141697 0.336792 -1.213414 93 88 68 0.601752 0.797144 -0.049556 0.000000 
0.160501 0.361488 -1.422678 112 100 66 0.959282 0.256416 -0.118446 0.000000 
0.167221 0.330705 -0.902932 115 106 83 0.695172 -0.717826 -0.038227 0.000000 
0.179572 0.334124 -0.758947 64 62 37 -0.983552 0.180184 -0.012624 0.000000 
0.178019 0.351607 -0.837920 113 105 84 -0.487998 -0.419449 -0.765454 0.000000 
0.157557 0.350712 -1.328564 106 91 50 -0.741060 0.671016 -0.023815 0.000000 
0.166022 0.339717 -1.034736 112 101 85 0.742846 -0.648661 -0.165583 0.000000 
0.137301 0.344810 -1.701087 112 106 84 -0.224193 -0.967234 -0.119143 0.000000 
0.145986 0.374882 -1.475395 97 90 45 0.106172 0.965777 0.236647 0.000000 
0.145066 0.372382 -1.440727 99 87 46 -0.012723 -0.981985 -0.188532 0.000000 
0.159687 0.327537 -0.931811 116 107 89 0.552025 -0.821377 0.143556 0.000000 
0.113667 0.372419 -1.714326 101 101 87 0.985295 -0.148567 0.084386 0.000000 
0.154060 0.351353 -1.551191 96 86 37 -0.526379 0.842497 -0.114556 0.000000 
0.117895 0.360630 -1.607267 78 77 57 -0.932481 -0.358646 0.043038 0.000000 
0.187013 0.322640 -0.503219 59 61 39 -0.516261 0.852891 0.077793 0.000000 
0.146752 0.371238 -1.396759 105 95 56 0.030997 0.997249 -0.067338 0.000000 
0.218637 0.355221 -0.142084 91 94 80 -0.441021 -0.826718 -0.349340 0.000000 
0.168453 0.342022 -1.010099 97 92 74 -0.850738 0.447676 0.275375 0.000000 
0.145046 0.333494 -1.429971 125 121 109 0.883061 -0.454996 0.114812 0.000000 
0.202268 0.353303 -0.191972 52 55 37 -0.667033 0.732987 0.133407 0.000000 
0.188353 0.341742 -0.517002 61 64 40 0.531491 0.846244 -0.037273 0.000000 
0.116275 0.366200 -1.719291 99 95 72 -0.904535 -0.418639 -0.080983 0.000000 
0.183889 0.340005 -0.367511 58 59 40 -0.906933 0.384197 0.172817 0.000000 
0.218265 0.342996 -0.225329 76 80 64 0.998268 -0.047436 -0.034787 0.000000 
0.161841 0.355392 -1.200124 112 100 67 -0.940474 -0.339581 0.013886 0.000000 
0.202064 0.352040 -0.207904 49 54 36 -0.685225 0.723212 0.086201 0.000000 
0.166414 0.339248 -1.000492 110 101 78 0.827519 -0.555025 -0.084616 0.000000 
0.148967 0.359111 -1.045193 103 93 73 0.173011 -0.984919 0.001131 0.000000 
0.154887 0.335260 -1.058884 106 95 68 0.621671 -0.783000 -0.020861 0.000000 
0.167393 0.324054 -0.641970 59 64 49 0.516330 0.835462 -0.188167 0.000000 
0.137917 0.373641 -1.446480 95 81 43 -0.028056 0.990945 0.131303 0.000000 
0.173667 0.345230 -0.592693 59 60 47 0.206947 -0.967893 0.142677 0.000000 
0.151538 0.343190 -1.346606 103 95 71 0.769946 -0.595736 -0.228651 0.000000 
0.142254 0.335499 -1.378708 113 107 90 0.258266 -0.964441 -0.056145 0.000000 
0.140884 0.336547 -0.936361 131 126 112 -0.959629 -0.274360 0.061952 0.000000 
0.163652 0.339924 -1.093100 113 107 95 0.559997 -0.828358 -0.015061 0.000000 
0.161931 0.362176 -1.378180 121 111 79 -0.983380 -0.172003 0.058125 0.000000 
0.176739 0.343706 -0.555294 49 53 33 0.678782 -0.734307 -0.006941 0.000000 
0.164678 0.327518 -0.623380 98 102 95 0.944284 0.323421 0.061047 0.000000 
0.186928 0.330278 -0.637340 90 93 76 0.939001 -0.290939 0.183388 0.000000 
0.195998 0.340122 -0.417202 74 75 53 -0.664563 -0.746399 -0.035274 0.000000 
0.195002 0.338381 -0.272008 55 57 40 0.973573 0.194715 -0.119341 0.000000 
0.165781 0.338992 -0.997628 107 98 69 0.820664 -0.555458 -0.134076 0.000000 
0.161564 0.345341 -1.166960 101 88 58 -0.750348 0.660250 -0.032379 0.000000 
0.138010 0.343047 -1.004328 104 96 73 -0.960925 -0.202230 0.189013 0.000000 
0.164736 0.343044 -0.705271 58 58 34 0.684771 -0.720267 -0.110924 0.000000 
0.188005 0.336174 -0.627233 92 93 61 0.993394 -0.007633 -0.114497 0.000000 
0.191471 0.331388 -0.308277 59 62 40 0.981387 0.182889 0.058572 0.000000 
0.178615 0.342391 -0.778077 86 85 63 -0.827118 -0.462998 0.318605 0.000000 
0.136256 0.360171 -1.200996 107 97 66 0.415660 -0.909174 -0.025072 0.000000 
0.175201 0.321921 -0.569621 72 75 56 0.338865 0.936862 -0.086377 0.000000 
0.137481 0.368857 -1.259641 113 104 81 0.341851 -0.933672 -0.106744 0.000000 
0.175629 0.323572 -0.716175 73 69 35 0.487516 -0.871451 0.053861 0.000000 
0.159178 0.353560 -0.945961 126 121 105 -0.395580 -0.892629 -0.216172 0.000000 
0.119615 0.360422 -1.810734 97 94 78 -0.729832 -0.669886 -0.136375 0.000000 
0.201999 0.354429 -0.159203 56 57 37 -0.400317 0.915576 -0.038314 0.000000 
0.129834 0.344508 -1.436789 116 111 92 0.659957 0.751272 -0.006918 0.000000 
0.127568 0.344205 -1.407736 107 104 82 0.577665 0.815934 0.023550 0.000000 
0.157098 0.328188 -0.777461 77 76 56 0.870998 0.425721 -0.245203 0.000000 
0.189051 0.337331 -0.601583 89 91 69 0.966167 0.250580 -0.061087 0.000000 
0.173174 0.330330 -0.890735 109 105 88 0.947186 -0.320681 -0.001238 0.000000 
