ply
format ascii 1.0
comment Created by Open3D
obj_info Generated by CloudCompare!
element vertex 612
property float x
property float y
property float z
property uchar red
property uchar green
property uchar blue
property float nx
property float ny
property float nz
property float scalar_stem0
end_header
-0.062888 -0.477647 -0.985921 51 53 37 -0.975627 -0.216673 0.034716 0.000000 
-0.115773 -0.500827 -1.479393 77 71 45 0.653345 0.676155 -0.340521 0.000000 
-0.023885 -0.474226 -0.468833 53 59 48 0.730670 -0.678376 -0.076989 0.000000 
-0.074681 -0.466673 -1.145121 105 101 89 0.126123 0.969488 -0.210204 0.000000 
-0.091551 -0.496747 -1.270087 103 94 61 -0.296136 -0.310869 0.903141 0.000000 
-0.107402 -0.462830 -1.578616 69 69 57 -0.072969 -0.997239 -0.013748 0.000000 
-0.091435 -0.493499 -1.244182 107 95 55 -0.133032 -0.063624 0.989067 0.000000 
-0.008116 -0.489595 -0.359537 74 80 79 -0.666569 -0.599745 0.442709 0.000000 
-0.103920 -0.470299 -1.802683 69 69 45 -0.201945 -0.979020 0.027162 0.000000 
-0.007583 -0.485580 -0.445295 65 75 55 0.990592 -0.126823 -0.051415 0.000000 
-0.078548 -0.492339 -1.022203 60 60 34 -0.621620 -0.744371 -0.243927 0.000000 
-0.066216 -0.494126 -0.928451 60 60 27 0.364434 -0.921478 0.134411 0.000000 
-0.003811 -0.478921 -0.413144 113 114 114 0.898324 0.371974 0.233770 0.000000 
-0.076681 -0.485985 -1.299607 120 109 74 0.983306 -0.139090 0.117319 0.000000 
-0.007547 -0.505319 -0.261828 61 67 40 0.863952 0.492667 -0.104245 0.000000 
-0.059400 -0.474290 -0.917203 59 64 50 -0.787392 -0.613682 0.058378 0.000000 
-0.119326 -0.471771 -1.911272 78 76 48 -0.371251 0.919089 -0.132093 0.000000 
-0.087869 -0.479562 -1.526932 109 107 89 0.965700 0.240471 0.097970 0.000000 
-0.113750 -0.485596 -1.373677 98 93 57 0.998204 0.043400 -0.041283 0.000000 
-0.053945 -0.486830 -0.630553 47 54 40 0.985677 -0.067286 -0.154639 0.000000 
-0.108411 -0.509986 -1.688624 98 92 61 -0.986174 0.165677 0.003381 0.000000 
-0.014975 -0.491255 -0.486378 46 54 32 -0.752485 0.658597 0.004142 0.000000 
-0.100147 -0.472923 -1.761290 88 84 56 -0.862632 -0.500748 0.071535 0.000000 
-0.009274 -0.484831 -0.188508 92 95 70 -0.991455 0.126879 0.030316 0.000000 
-0.042788 -0.476827 -0.600632 57 62 54 0.601391 -0.744959 -0.288731 0.000000 
0.006402 -0.508975 -0.256002 50 56 28 -0.766853 0.625788 0.142566 0.000000 
-0.108840 -0.481070 -1.278068 107 101 68 0.876168 -0.017443 -0.481691 0.000000 
-0.103148 -0.487215 -1.226844 92 87 63 -0.682289 -0.706931 0.186359 0.000000 
-0.018381 -0.489931 -0.511529 45 50 30 0.756130 -0.647903 -0.092140 0.000000 
-0.024369 -0.489784 -0.560445 56 62 38 -0.771087 0.633751 0.061515 0.000000 
-0.095216 -0.500369 -1.184183 129 122 98 -0.277047 -0.213006 0.936949 0.000000 
-0.087149 -0.501255 -1.172001 103 94 69 0.441307 -0.897191 0.017228 0.000000 
-0.064006 -0.477919 -1.035851 75 75 59 -0.958905 -0.277411 0.059536 0.000000 
-0.084527 -0.491485 -1.379123 116 102 61 0.555584 -0.817737 -0.150440 0.000000 
-0.074939 -0.498023 -1.107275 79 83 68 0.240220 -0.954168 -0.178487 0.000000 
-0.135921 -0.480711 -1.888455 93 92 75 -0.232258 0.972654 -0.001179 0.000000 
-0.098637 -0.485541 -1.709652 98 88 42 0.944000 -0.320777 0.077248 0.000000 
-0.064076 -0.467951 -0.883976 76 77 66 0.025114 0.994734 0.099364 0.000000 
-0.086327 -0.496298 -1.231752 104 90 51 -0.053208 -0.998426 0.017736 0.000000 
0.000520 -0.520910 -0.182882 113 110 73 0.574273 0.814866 0.078766 0.000000 
-0.074279 -0.490462 -0.924810 47 50 37 0.643490 0.741780 -0.188900 0.000000 
-0.076976 -0.477009 -1.305076 116 108 80 0.974012 0.209692 -0.085614 0.000000 
-0.081080 -0.446878 -1.066486 94 89 73 0.205706 0.966428 -0.153956 0.000000 
-0.071218 -0.485046 -1.152960 111 104 78 -0.973381 0.208136 0.095967 0.000000 
-0.088268 -0.499501 -1.209650 100 93 68 -0.219148 0.974663 -0.044798 0.000000 
0.009379 -0.513315 -0.196952 107 104 70 0.416094 -0.745022 -0.521351 0.000000 
-0.086612 -0.470342 -1.320730 91 87 70 -0.379630 -0.918015 -0.114579 0.000000 
-0.055850 -0.483474 -0.639079 86 91 85 -0.890008 0.455072 -0.028190 0.000000 
-0.113111 -0.486966 -1.365154 80 78 51 -0.950403 -0.310105 -0.023854 0.000000 
-0.068147 -0.486232 -1.072440 70 68 34 -0.943871 0.329021 0.029218 0.000000 
-0.047559 -0.477872 -0.793495 98 98 80 0.975053 0.116406 -0.189003 0.000000 
-0.073378 -0.497506 -0.958419 48 57 32 -0.717019 0.637173 0.282656 0.000000 
-0.065685 -0.482212 -1.038782 76 73 44 0.974979 -0.215445 -0.054774 0.000000 
0.008357 -0.505591 -0.251104 52 61 39 0.827986 -0.530452 -0.181826 0.000000 
-0.093297 -0.482813 -1.624967 107 96 54 -0.982303 0.173488 0.070592 0.000000 
-0.056642 -0.483335 -0.933457 79 82 62 -0.892279 0.429722 0.138482 0.000000 
-0.098430 -0.464293 -1.480021 103 101 79 0.135427 0.982149 -0.130547 0.000000 
-0.048994 -0.471297 -0.709131 78 85 79 -0.157253 0.981308 -0.110930 0.000000 
0.012446 -0.484574 -0.229979 96 99 75 -0.862359 -0.506079 0.014845 0.000000 
-0.105897 -0.480835 -1.239394 105 99 69 -0.979228 0.122249 0.161764 0.000000 
-0.035190 -0.485173 -0.652930 56 62 50 0.966452 -0.180318 -0.182912 0.000000 
-0.050582 -0.471295 -0.748473 65 71 67 -0.364786 -0.916895 -0.161971 0.000000 
-0.103996 -0.474598 -1.728325 96 94 68 0.587786 0.807678 0.046515 0.000000 
-0.055507 -0.478401 -0.888248 67 72 57 0.999984 0.002956 0.004926 0.000000 
-0.120442 -0.483385 -1.481670 88 84 50 -0.990377 -0.131063 -0.044447 0.000000 
-0.052214 -0.477882 -0.823291 64 71 58 -0.957421 -0.232384 0.171300 0.000000 
-0.085555 -0.499731 -1.170355 111 101 65 0.648919 -0.715557 -0.258616 0.000000 
-0.101956 -0.494290 -1.613542 105 96 54 0.901929 -0.428653 -0.052736 0.000000 
-0.100186 -0.495814 -1.267370 95 88 62 -0.688412 -0.366387 -0.625979 0.000000 
-0.037270 -0.487997 -0.657403 51 57 42 -0.910468 0.403892 0.088993 0.000000 
-0.122298 -0.479675 -1.810402 89 87 52 -0.440674 0.896264 -0.050169 0.000000 
-0.099739 -0.492283 -1.193953 96 91 67 0.753846 0.652561 -0.076687 0.000000 
-0.079198 -0.492155 -1.267014 117 106 68 0.696503 -0.708384 -0.114351 0.000000 
-0.078701 -0.474881 -1.268792 102 96 75 0.562165 0.817561 0.124762 0.000000 
-0.112796 -0.497379 -1.507272 110 105 70 0.524965 0.672558 -0.521610 0.000000 
-0.073714 -0.476094 -1.209307 122 111 85 -0.834376 -0.549263 -0.046121 0.000000 
-0.066382 -0.467199 -0.894989 79 80 69 0.096152 -0.990484 -0.098469 0.000000 
-0.142735 -0.481570 -1.847197 83 85 67 0.374167 -0.913533 -0.159551 0.000000 
-0.005638 -0.498324 -0.378302 79 88 70 0.890953 -0.450266 -0.058849 0.000000 
-0.075994 -0.491968 -1.097237 55 54 22 0.526185 -0.839845 -0.133378 0.000000 
-0.100438 -0.481449 -1.157533 83 78 58 -0.971490 0.037598 0.234079 0.000000 
-0.084854 -0.479697 -1.460673 131 121 88 0.928221 0.366786 0.062235 0.000000 
-0.003988 -0.513478 -0.294154 76 81 67 -0.255294 0.871626 -0.418441 0.000000 
-0.037426 -0.478950 -0.552637 66 71 60 0.798729 -0.589081 -0.122541 0.000000 
-0.099407 -0.471608 -1.814084 102 101 81 -0.868424 -0.492889 0.053845 0.000000 
-0.080707 -0.473516 -1.304320 90 86 69 0.736914 0.636781 0.226863 0.000000 
0.004393 -0.482373 -0.205295 48 52 32 0.313713 -0.921083 0.230629 0.000000 
-0.135591 -0.468911 -1.966434 94 95 79 -0.319001 0.916587 0.241055 0.000000 
-0.060957 -0.481152 -0.711952 42 48 37 -0.915489 0.399945 -0.043848 0.000000 
-0.053664 -0.483090 -0.639882 46 52 41 0.814861 -0.573421 -0.084792 0.000000 
-0.130069 -0.478477 -1.689665 70 68 33 0.720945 -0.689032 -0.073980 0.000000 
-0.100844 -0.507480 -1.272175 101 94 71 -0.537116 0.843259 -0.020501 0.000000 
-0.031361 -0.497877 -0.602549 86 87 80 0.909505 -0.414374 -0.033097 0.000000 
0.005529 -0.480408 -0.222929 89 97 86 0.007558 0.994471 -0.104738 0.000000 
0.011472 -0.485550 -0.257744 130 132 127 0.425030 0.886576 -0.182573 0.000000 
-0.094822 -0.472453 -1.532615 102 97 76 -0.628274 -0.749275 -0.209425 0.000000 
-0.010341 -0.494703 -0.309399 63 69 58 0.548984 -0.832696 0.072347 0.000000 
-0.083617 -0.488775 -1.024684 66 65 35 0.606772 0.782691 0.138648 0.000000 
-0.073992 -0.488084 -1.143980 106 96 61 0.635851 -0.697648 -0.330122 0.000000 
0.001906 -0.509603 -0.252631 57 65 37 -0.170826 -0.979483 0.106920 0.000000 
-0.079159 -0.446115 -1.029272 129 120 87 0.946784 -0.112870 0.301431 0.000000 
-0.009000 -0.517662 -0.308688 48 56 42 -0.872771 0.467504 -0.140396 0.000000 
-0.070557 -0.486036 -1.102242 83 78 46 -0.998794 0.015525 -0.046576 0.000000 
-0.017577 -0.502596 -0.488732 103 103 95 -0.024247 0.937980 0.345840 0.000000 
-0.076279 -0.488960 -1.163077 99 87 54 0.660351 -0.735906 0.149599 0.000000 
-0.091607 -0.468529 -1.374002 116 110 87 0.597735 0.801160 -0.029260 0.000000 
-0.113701 -0.468987 -1.616401 76 71 34 -0.998348 -0.015648 -0.055290 0.000000 
-0.128369 -0.481386 -1.804927 89 88 61 0.184073 -0.960095 0.210559 0.000000 
-0.055201 -0.495852 -0.760440 44 53 28 0.259664 -0.947568 -0.186251 0.000000 
-0.098212 -0.487424 -1.645401 107 96 51 0.857295 -0.513276 -0.039906 0.000000 
-0.048878 -0.488163 -0.782836 50 55 36 0.911902 -0.369613 -0.178385 0.000000 
-0.016342 -0.488637 -0.362204 77 81 76 -0.381857 0.919991 0.088330 0.000000 
-0.071044 -0.474407 -0.846592 66 70 56 0.648959 -0.760607 0.018143 0.000000 
-0.033104 -0.497508 -0.561932 47 57 38 -0.172139 -0.980340 0.096447 0.000000 
-0.050649 -0.489646 -0.809166 52 57 39 0.844165 -0.514160 -0.151743 0.000000 
-0.108171 -0.514317 -1.623867 107 100 78 0.918870 -0.390753 -0.054679 0.000000 
-0.085293 -0.484643 -1.141258 73 66 32 -0.029459 0.764543 0.643899 0.000000 
-0.132181 -0.462536 -1.980644 99 90 68 -0.064397 -0.993072 -0.098290 0.000000 
-0.033208 -0.496404 -0.573637 51 59 49 0.001051 0.997054 0.076696 0.000000 
-0.034618 -0.479279 -0.654165 80 86 72 0.968571 0.134702 -0.209109 0.000000 
-0.087814 -0.492738 -1.396968 115 101 56 0.646240 -0.762981 0.015287 0.000000 
-0.018866 -0.490548 -0.507320 48 55 32 -0.735965 0.667848 0.111061 0.000000 
-0.095501 -0.493412 -1.111683 64 67 39 -0.943235 -0.324849 -0.069144 0.000000 
-0.087214 -0.492213 -1.256173 94 86 55 0.278795 0.954186 -0.108638 0.000000 
-0.008229 -0.475837 -0.432071 88 96 86 -0.687737 -0.722485 -0.070945 0.000000 
-0.091791 -0.504860 -1.186798 112 105 80 0.669886 -0.742306 0.015320 0.000000 
-0.105910 -0.465866 -1.552837 99 94 66 -0.056805 0.977770 0.201839 0.000000 
-0.070800 -0.471656 -1.022557 62 62 46 -0.758230 -0.651318 0.029541 0.000000 
-0.053175 -0.493565 -0.699548 50 55 31 0.623066 0.739793 -0.253959 0.000000 
-0.093560 -0.506825 -1.141534 119 116 96 0.509042 0.830059 -0.227769 0.000000 
-0.038911 -0.469892 -0.623345 104 105 93 0.039485 -0.991625 -0.122966 0.000000 
-0.099706 -0.465435 -1.444111 96 90 63 -0.457181 0.885001 0.088081 0.000000 
-0.104349 -0.502043 -1.388431 104 96 68 0.974778 -0.165195 -0.150063 0.000000 
-0.118524 -0.483459 -1.458905 77 77 50 0.983689 -0.176201 -0.036174 0.000000 
-0.119555 -0.477358 -1.522055 79 75 38 0.440405 -0.897798 -0.001307 0.000000 
-0.031917 -0.475721 -0.611534 80 88 81 -0.624567 -0.766036 0.152003 0.000000 
-0.077351 -0.474889 -1.279161 88 85 66 -0.785075 -0.615717 -0.067456 0.000000 
-0.072827 -0.490214 -0.877464 54 56 30 0.548356 0.834455 0.054695 0.000000 
0.003115 -0.501601 -0.305828 55 64 48 0.973392 -0.065056 -0.219719 0.000000 
-0.031982 -0.491377 -0.473129 138 145 146 0.268570 -0.824340 -0.498330 0.000000 
-0.031056 -0.489268 -0.495457 64 69 56 0.834317 0.485786 -0.260628 0.000000 
0.011079 -0.505015 -0.224284 96 95 62 0.628244 -0.777223 0.035137 0.000000 
-0.121845 -0.472072 -1.707479 68 64 27 0.309706 -0.917594 -0.249205 0.000000 
-0.050034 -0.491465 -0.620728 42 48 35 0.721210 0.669148 -0.179154 0.000000 
-0.109109 -0.490103 -1.329778 83 79 49 -0.819698 -0.551920 0.153229 0.000000 
0.009097 -0.483234 -0.233972 55 56 40 0.608529 0.793434 -0.012419 0.000000 
-0.016169 -0.501925 -0.391988 43 49 38 -0.028327 -0.989186 -0.143902 0.000000 
-0.070229 -0.484996 -1.086098 77 74 46 0.995751 -0.049295 -0.077776 0.000000 
-0.104569 -0.473980 -1.709723 87 82 55 0.081373 -0.987087 0.137980 0.000000 
-0.092945 -0.506756 -1.233137 108 101 78 0.963882 -0.038357 -0.263552 0.000000 
-0.022959 -0.501194 -0.368138 46 52 39 0.996565 -0.040036 -0.072497 0.000000 
-0.121773 -0.464180 -1.700957 84 81 57 0.881959 -0.470107 0.033869 0.000000 
-0.094043 -0.491394 -1.261188 107 95 52 0.492434 0.848663 0.193082 0.000000 
-0.007286 -0.484714 -0.452504 71 80 58 0.997828 -0.037272 -0.054311 0.000000 
-0.021811 -0.469649 -0.469277 84 92 85 0.446108 -0.893572 -0.050170 0.000000 
-0.040324 -0.496442 -0.645028 51 56 27 0.478043 -0.859886 -0.179081 0.000000 
-0.049794 -0.480459 -0.797860 54 59 45 0.970852 0.225577 -0.081008 0.000000 
-0.026137 -0.489447 -0.467791 45 52 40 0.591004 0.797339 -0.122327 0.000000 
-0.104831 -0.501202 -1.371583 105 94 58 0.716419 -0.686630 -0.123623 0.000000 
-0.087284 -0.470091 -1.399614 99 95 78 0.649530 0.704058 -0.287076 0.000000 
-0.053945 -0.490512 -0.647739 47 53 40 0.764538 0.606358 -0.218661 0.000000 
-0.019286 -0.483988 -0.391405 71 75 65 0.671839 -0.655492 -0.344910 0.000000 
-0.081967 -0.500040 -1.070635 54 60 43 0.758574 -0.644128 -0.098307 0.000000 
-0.033523 -0.495640 -0.538926 56 64 40 -0.567569 -0.781390 0.259415 0.000000 
-0.096863 -0.503159 -1.280322 108 100 72 0.512755 -0.823796 0.241749 0.000000 
-0.107670 -0.467472 -1.672379 95 93 67 0.516295 0.855928 0.028759 0.000000 
-0.062931 -0.477637 -1.014367 63 66 50 0.953817 0.284974 -0.094991 0.000000 
-0.087596 -0.503272 -1.191533 103 94 66 -0.564786 0.802270 -0.193336 0.000000 
-0.107982 -0.467582 -1.473977 76 72 48 -0.645662 0.738120 0.195702 0.000000 
-0.076825 -0.477297 -1.266550 116 105 77 0.904052 0.415225 -0.101376 0.000000 
-0.048827 -0.473269 -0.651380 98 98 89 -0.552742 0.756982 0.348503 0.000000 
-0.032124 -0.495741 -0.591727 56 63 36 -0.675012 0.690895 0.258887 0.000000 
-0.109835 -0.469920 -1.950567 75 73 50 -0.208291 -0.977908 0.017652 0.000000 
-0.038745 -0.482185 -0.542744 52 57 46 -0.885470 0.425904 0.185875 0.000000 
-0.090476 -0.497829 -1.442041 105 99 77 -0.602279 0.796927 -0.046546 0.000000 
-0.094142 -0.492541 -1.495873 114 100 55 -0.621147 0.783664 -0.006886 0.000000 
-0.108525 -0.503928 -1.729816 92 85 46 0.976184 -0.215212 0.027347 0.000000 
-0.072054 -0.485664 -1.143472 102 93 56 0.885274 -0.444782 -0.135866 0.000000 
-0.068740 -0.491138 -1.001818 56 57 34 0.667359 -0.744734 -0.001382 0.000000 
-0.106637 -0.480807 -1.251900 94 90 64 0.978847 0.084110 -0.186505 0.000000 
-0.078985 -0.497420 -1.056364 51 56 29 0.721939 -0.673303 0.159586 0.000000 
-0.104953 -0.493468 -1.291430 91 84 54 0.674907 0.723223 -0.146456 0.000000 
-0.007357 -0.490762 -0.216010 79 83 65 0.995754 -0.087956 0.027147 0.000000 
-0.015140 -0.508545 -0.363223 42 51 33 0.048998 0.996288 0.070775 0.000000 
-0.087813 -0.461565 -1.119925 94 90 71 -0.161225 0.947030 -0.277741 0.000000 
-0.104190 -0.494142 -1.435034 106 91 43 0.794612 -0.600663 -0.088290 0.000000 
-0.019535 -0.472384 -0.501286 49 55 50 -0.228240 0.947129 -0.225507 0.000000 
-0.106955 -0.483229 -1.230578 84 82 62 0.999757 0.019091 0.011053 0.000000 
-0.026537 -0.481447 -0.579183 65 73 61 0.957551 0.209090 -0.198436 0.000000 
-0.008074 -0.501673 -0.241582 51 56 42 0.959564 0.277207 0.048919 0.000000 
-0.071631 -0.489928 -1.107987 79 76 48 0.725622 -0.667816 0.165813 0.000000 
-0.007459 -0.503471 -0.241655 57 62 39 -0.869176 -0.488474 -0.076980 0.000000 
-0.086401 -0.501610 -1.173089 119 109 75 -0.591395 0.803324 -0.070166 0.000000 
-0.066320 -0.489027 -1.026842 62 63 40 -0.626750 0.745535 0.226630 0.000000 
-0.060838 -0.471492 -0.897512 75 79 72 0.616312 0.766185 -0.181988 0.000000 
-0.053033 -0.478119 -0.849417 68 73 58 0.974084 0.185240 -0.129794 0.000000 
-0.019555 -0.508255 -0.341066 45 52 39 0.837260 0.541589 -0.075339 0.000000 
-0.060783 -0.480629 -0.972140 95 95 62 -0.994471 -0.007558 0.104738 0.000000 
-0.003754 -0.479283 -0.199290 84 85 67 -0.502899 0.859059 -0.095451 0.000000 
-0.075867 -0.497653 -1.014815 52 58 37 -0.597842 0.795668 -0.097458 0.000000 
-0.079914 -0.492507 -1.210066 108 97 66 0.921382 -0.386216 0.043499 0.000000 
-0.094381 -0.482662 -1.655965 107 96 52 -0.897552 0.435798 -0.066941 0.000000 
-0.029616 -0.479728 -0.494604 64 72 68 -0.900992 0.402510 0.161863 0.000000 
-0.091731 -0.466921 -1.413454 82 79 63 0.451376 0.871673 0.190910 0.000000 
-0.099982 -0.499287 -1.290264 96 89 60 0.617981 0.780838 0.091607 0.000000 
-0.085381 -0.483891 -1.455141 123 111 78 0.957684 0.235104 -0.166034 0.000000 
-0.097162 -0.488197 -1.580688 110 99 58 0.562529 -0.826768 -0.004086 0.000000 
0.010469 -0.499090 -0.250165 49 53 32 -0.971045 0.225621 0.078531 0.000000 
-0.064385 -0.473129 -1.129713 112 101 64 -0.361371 0.881503 -0.303914 0.000000 
-0.070932 -0.470600 -1.027245 82 79 56 -0.686880 -0.716680 0.120688 0.000000 
-0.106151 -0.505689 -1.451939 103 93 59 0.972891 -0.206598 -0.103925 0.000000 
-0.086547 -0.491373 -1.410750 118 103 60 0.596698 -0.802456 -0.004115 0.000000 
0.009039 -0.500193 -0.268431 56 64 44 0.965622 -0.238535 -0.103323 0.000000 
-0.057804 -0.475136 -0.732099 59 64 51 0.508532 -0.847553 -0.151822 0.000000 
-0.021484 -0.488329 -0.557734 65 71 52 -0.924128 0.379905 0.040751 0.000000 
-0.076754 -0.469494 -0.995657 73 72 56 0.572590 -0.807575 -0.141289 0.000000 
0.007727 -0.502959 -0.262896 47 53 31 0.931403 -0.354120 0.084187 0.000000 
-0.058513 -0.494380 -0.833055 64 68 55 -0.093451 -0.946358 -0.309310 0.000000 
-0.103611 -0.492523 -1.204806 123 117 95 -0.946861 -0.308616 0.090615 0.000000 
-0.102243 -0.491471 -1.742827 89 83 45 -0.878175 0.473077 0.070753 0.000000 
-0.065408 -0.492961 -0.861751 42 47 34 -0.110586 -0.958847 0.261504 0.000000 
-0.058891 -0.498079 -0.739157 44 54 37 0.027126 -0.999632 0.001005 0.000000 
-0.075752 -0.446561 -1.053309 104 98 76 0.771013 0.553013 -0.315779 0.000000 
-0.098059 -0.507477 -1.251441 101 94 72 0.804448 0.528458 -0.271286 0.000000 
-0.021288 -0.479772 -0.545672 60 66 55 0.984568 0.060280 -0.164292 0.000000 
-0.007346 -0.495393 -0.407394 60 70 48 -0.820356 0.502799 0.272414 0.000000 
-0.096182 -0.484849 -1.738563 110 102 79 -0.992177 -0.123052 0.021063 0.000000 
-0.104834 -0.506484 -1.329854 101 93 70 0.586525 -0.808757 0.043603 0.000000 
-0.038040 -0.498345 -0.609565 64 70 59 0.312566 -0.940403 0.133957 0.000000 
-0.056072 -0.483526 -0.896390 80 81 52 -0.937067 0.314185 0.152291 0.000000 
-0.067468 -0.477641 -0.794275 62 68 57 -0.940682 0.337516 -0.034650 0.000000 
0.001775 -0.506740 -0.304740 42 48 26 0.825096 -0.510480 -0.242131 0.000000 
-0.048063 -0.489827 -0.771965 53 56 40 -0.928171 0.300914 0.218975 0.000000 
-0.107615 -0.482959 -1.267309 97 92 62 0.997970 -0.063479 0.005203 0.000000 
-0.071478 -0.469590 -0.993675 72 71 57 0.766973 0.641240 0.023750 0.000000 
0.012434 -0.497130 -0.240896 60 65 41 0.975341 -0.157313 -0.154796 0.000000 
-0.097726 -0.470655 -1.513986 80 77 60 0.578832 0.814289 0.043447 0.000000 
-0.028481 -0.495391 -0.492393 48 58 44 -0.986315 -0.163433 0.021715 0.000000 
-0.111185 -0.471330 -1.943043 84 83 61 0.135664 0.981423 0.135664 0.000000 
-0.072679 -0.491178 -0.913099 46 50 37 -0.653549 -0.756667 0.018115 0.000000 
-0.105805 -0.496697 -1.737862 87 81 40 -0.846664 0.527222 0.072087 0.000000 
-0.080066 -0.487327 -0.911239 66 68 32 0.919877 0.391242 -0.027479 0.000000 
-0.010791 -0.507502 -0.288961 42 50 37 0.746388 0.664243 -0.041073 0.000000 
-0.071491 -0.450996 -1.060778 82 83 74 0.856776 -0.508401 -0.086386 0.000000 
-0.110034 -0.479596 -1.307465 98 93 59 0.940902 -0.326867 -0.088664 0.000000 
-0.098634 -0.493441 -1.149338 125 118 95 -0.657262 -0.752966 -0.032371 0.000000 
-0.122601 -0.473865 -1.665357 69 67 31 0.667300 -0.743806 -0.038253 0.000000 
-0.102316 -0.493730 -1.675714 98 90 50 0.952271 -0.241098 0.187222 0.000000 
-0.073030 -0.482823 -1.165780 113 99 63 0.970831 -0.234423 -0.050321 0.000000 
-0.031134 -0.490815 -0.619570 59 66 47 0.916927 -0.394881 -0.057559 0.000000 
-0.103777 -0.494588 -1.435830 107 92 44 -0.932145 0.360117 -0.037702 0.000000 
-0.055828 -0.472117 -0.740718 60 64 52 0.113208 -0.991431 -0.065181 0.000000 
-0.092458 -0.492933 -1.266626 109 98 64 0.328560 -0.940817 -0.083130 0.000000 
-0.055810 -0.471133 -0.763030 65 69 54 0.345315 -0.896633 -0.277141 0.000000 
-0.083310 -0.480472 -1.417771 130 119 88 0.995492 0.092075 0.022748 0.000000 
-0.093353 -0.485196 -1.091034 65 63 43 0.929088 0.369856 -0.001271 0.000000 
-0.082972 -0.507138 -1.151443 92 94 80 0.643467 -0.739139 0.199058 0.000000 
-0.069382 -0.494343 -0.931656 56 61 48 0.234569 -0.967437 0.095095 0.000000 
-0.086318 -0.490454 -1.426337 117 102 59 -0.650991 0.746769 0.136184 0.000000 
-0.101930 -0.472436 -1.225765 112 105 78 0.842661 -0.531832 0.084124 0.000000 
-0.125586 -0.475974 -1.678324 68 65 29 -0.605831 0.795241 -0.023676 0.000000 
-0.101707 -0.465646 -1.319631 88 88 77 -0.419970 0.732889 -0.535256 0.000000 
-0.098007 -0.466673 -1.274226 99 95 82 -0.464348 0.875503 -0.133698 0.000000 
-0.079647 -0.472573 -0.969809 61 63 53 0.694495 -0.697562 -0.176307 0.000000 
-0.085801 -0.501836 -1.137528 72 71 42 0.850180 -0.411879 0.327949 0.000000 
-0.107742 -0.477238 -1.738668 93 89 62 0.100642 0.994253 -0.036496 0.000000 
-0.020587 -0.497953 -0.435975 45 56 40 0.242409 -0.957715 0.154983 0.000000 
-0.080328 -0.493746 -1.089670 53 56 39 0.050303 -0.993766 -0.099488 0.000000 
-0.065806 -0.494472 -0.869011 46 52 40 0.310620 -0.911444 0.269787 0.000000 
-0.078686 -0.486528 -1.342988 133 120 86 0.959999 -0.277665 0.036109 0.000000 
-0.074694 -0.495471 -1.024744 49 54 28 0.468351 0.875115 -0.121743 0.000000 
-0.094164 -0.493327 -1.149043 103 99 80 0.486270 0.864320 -0.128422 0.000000 
-0.081064 -0.463020 -1.131805 103 99 78 0.172218 0.912329 -0.371479 0.000000 
-0.084300 -0.490021 -1.461757 100 94 73 -0.853382 0.519750 0.039981 0.000000 
-0.028454 -0.477824 -0.591804 51 57 47 0.923875 0.365444 -0.113602 0.000000 
-0.083022 -0.496708 -1.124313 57 56 28 0.506294 -0.858866 0.077566 0.000000 
-0.007352 -0.484917 -0.456748 69 77 59 0.986287 0.054989 -0.155606 0.000000 
-0.001613 -0.492000 -0.293000 48 54 46 -0.110267 0.977532 -0.179648 0.000000 
-0.102764 -0.470329 -1.375202 84 81 60 0.585872 -0.744041 -0.321180 0.000000 
-0.007739 -0.499936 -0.387003 55 67 45 -0.691581 0.666026 0.279507 0.000000 
-0.027892 -0.493606 -0.575306 58 63 51 -0.861692 0.504844 0.051176 0.000000 
-0.093272 -0.475062 -1.516551 118 113 92 0.447247 0.887439 -0.111459 0.000000 
-0.005762 -0.514614 -0.186979 103 102 74 -0.783056 -0.612635 0.107248 0.000000 
-0.091516 -0.488453 -1.098571 73 68 40 -0.706905 -0.706905 -0.023891 0.000000 
-0.066615 -0.493745 -0.861560 57 62 30 0.176442 0.952250 -0.249174 0.000000 
-0.008597 -0.504170 -0.370050 52 63 41 -0.507264 0.848380 0.151444 0.000000 
-0.075388 -0.484276 -1.314692 137 133 126 -0.983664 -0.148091 -0.102340 0.000000 
-0.011257 -0.511172 -0.342042 43 54 36 0.344493 -0.916265 -0.204409 0.000000 
-0.040754 -0.481951 -0.715504 71 76 54 0.943051 -0.249915 -0.219539 0.000000 
-0.035991 -0.483950 -0.660362 67 71 50 0.949033 -0.280549 -0.143630 0.000000 
-0.075431 -0.485813 -1.220640 108 97 65 -0.822259 0.568832 -0.017905 0.000000 
-0.077539 -0.496527 -1.060646 56 61 41 0.562168 -0.825728 -0.046263 0.000000 
-0.071469 -0.468285 -1.143702 96 90 69 0.408234 0.863867 -0.295091 0.000000 
-0.103084 -0.474498 -1.844585 69 66 36 -0.940518 -0.336729 -0.045155 0.000000 
-0.091008 -0.491147 -1.266978 100 91 58 -0.279110 -0.910396 0.305414 0.000000 
-0.053515 -0.468626 -0.817269 68 76 67 -0.322534 -0.934661 0.149601 0.000000 
-0.079969 -0.484893 -1.366201 112 104 78 -0.985437 -0.168637 0.021797 0.000000 
-0.080980 -0.491445 -1.320589 113 100 63 0.642326 -0.764809 0.049848 0.000000 
-0.083613 -0.483958 -1.072238 69 65 33 -0.360230 -0.846774 0.391418 0.000000 
-0.041921 -0.476187 -0.719471 79 86 74 0.977568 0.210066 0.015256 0.000000 
-0.084627 -0.488922 -1.014124 68 67 35 -0.678178 -0.709074 0.193103 0.000000 
-0.025803 -0.489881 -0.458172 65 71 59 0.745133 0.652178 -0.139431 0.000000 
-0.089859 -0.499179 -1.189284 105 98 76 -0.845451 -0.428175 0.319185 0.000000 
-0.091371 -0.496269 -1.170155 103 96 73 0.724712 0.656431 0.209499 0.000000 
-0.080657 -0.494298 -1.282264 112 102 70 -0.755888 0.597421 -0.267809 0.000000 
-0.050755 -0.485983 -0.602991 79 87 69 0.992424 0.012116 -0.122263 0.000000 
-0.034335 -0.478475 -0.529895 67 76 72 0.863875 -0.496268 -0.086246 0.000000 
-0.106295 -0.504305 -1.702481 98 91 55 0.949512 -0.306169 0.068468 0.000000 
-0.061051 -0.495560 -0.877633 60 66 52 0.549248 -0.798199 0.247395 0.000000 
-0.036119 -0.491479 -0.510343 75 87 75 -0.716702 -0.697143 0.018162 0.000000 
-0.109388 -0.508822 -1.504693 103 92 65 -0.846533 0.528203 -0.066201 0.000000 
-0.102557 -0.471889 -1.791336 82 78 47 -0.553669 -0.813155 -0.179528 0.000000 
-0.071401 -0.498225 -0.907842 54 61 42 -0.508302 0.847170 -0.154701 0.000000 
-0.084314 -0.481304 -0.967562 57 60 46 0.985692 -0.167899 -0.014848 0.000000 
-0.068019 -0.498628 -0.940477 134 134 120 -0.272489 0.918387 0.286906 0.000000 
-0.102477 -0.485122 -1.904950 70 67 46 -0.964394 -0.264333 -0.008449 0.000000 
-0.110728 -0.467186 -1.852046 76 75 46 0.343456 0.835901 -0.428144 0.000000 
-0.000733 -0.510216 -0.247403 54 63 42 -0.141739 -0.987488 0.069112 0.000000 
-0.057733 -0.476086 -0.707663 56 64 56 0.631970 -0.769164 0.094868 0.000000 
-0.078805 -0.448557 -1.032738 127 116 86 0.967298 -0.110876 0.228124 0.000000 
-0.101731 -0.506659 -1.349616 109 101 66 0.627343 -0.771323 0.107251 0.000000 
-0.093624 -0.457699 -1.291176 79 76 62 0.880657 0.180234 -0.438131 0.000000 
-0.006781 -0.506521 -0.352389 55 64 39 0.580160 -0.802728 -0.137992 0.000000 
-0.112512 -0.473776 -1.372984 98 95 76 -0.765665 0.638295 0.079606 0.000000 
-0.101449 -0.471237 -1.433251 81 77 44 0.698695 -0.704654 -0.123650 0.000000 
-0.122976 -0.479492 -1.533110 82 78 42 -0.585262 0.809822 0.040702 0.000000 
-0.081617 -0.497330 -1.128446 94 93 77 0.683739 -0.716799 0.136748 0.000000 
-0.058384 -0.499654 -0.755229 54 62 43 0.271813 -0.926442 -0.260428 0.000000 
-0.017767 -0.488885 -0.531816 58 61 52 -0.724836 0.186210 0.663279 0.000000 
-0.037983 -0.498652 -0.619423 53 57 35 -0.395710 0.851939 0.342948 0.000000 
-0.087303 -0.472127 -1.349291 93 89 71 -0.573776 -0.794106 0.200439 0.000000 
-0.051305 -0.491397 -0.806067 55 59 43 0.610625 -0.788784 -0.070402 0.000000 
-0.071732 -0.460285 -1.084995 115 107 79 -0.832164 -0.481942 -0.274289 0.000000 
-0.083166 -0.492927 -1.335574 122 110 75 0.422619 -0.897535 -0.125796 0.000000 
-0.105974 -0.475006 -1.288978 100 95 68 -0.699982 0.711481 -0.061805 0.000000 
-0.084274 -0.495437 -1.143493 66 64 33 0.917165 0.341970 0.204609 0.000000 
-0.083290 -0.480368 -1.400898 128 118 87 0.968681 0.246728 0.027954 0.000000 
-0.061063 -0.480056 -0.975169 98 97 65 0.975581 0.049565 -0.213975 0.000000 
-0.078742 -0.485674 -1.340010 132 120 87 0.989074 -0.120277 -0.085245 0.000000 
-0.073241 -0.484520 -0.837913 47 52 38 0.963061 0.223451 -0.150274 0.000000 
-0.083280 -0.483557 -0.970714 58 60 46 -0.993394 -0.114497 -0.007633 0.000000 
-0.058894 -0.492371 -0.858616 56 59 39 0.499608 -0.823342 -0.269259 0.000000 
-0.010807 -0.498010 -0.261465 69 74 52 -0.987105 0.038010 0.155495 0.000000 
-0.107003 -0.493094 -1.311387 105 99 66 0.877490 0.462364 -0.127401 0.000000 
-0.087582 -0.481968 -1.010766 52 55 41 0.910306 0.249060 0.330623 0.000000 
-0.078615 -0.491752 -1.258072 109 98 64 -0.729231 0.679939 -0.076838 0.000000 
0.005940 -0.508080 -0.257493 49 58 36 -0.906238 0.389611 0.164122 0.000000 
-0.070480 -0.483728 -0.805339 39 43 32 0.976304 0.100229 -0.191796 0.000000 
0.000553 -0.502697 -0.332479 79 82 72 0.983828 -0.082484 -0.158991 0.000000 
-0.061808 -0.483564 -0.976627 71 71 46 -0.992707 0.069206 0.098703 0.000000 
0.014488 -0.496998 -0.225857 93 93 61 0.986577 0.133833 -0.093565 0.000000 
-0.068478 -0.490857 -0.828439 56 59 27 0.647260 0.725621 -0.233515 0.000000 
-0.084735 -0.477593 -1.417756 105 101 81 0.894559 0.446617 0.017229 0.000000 
-0.053534 -0.495499 -0.699346 98 102 90 0.605177 0.778085 -0.168358 0.000000 
-0.004715 -0.500164 -0.366771 84 94 80 0.999291 0.037537 -0.003044 0.000000 
-0.114980 -0.475605 -1.741624 111 107 80 0.292462 0.912306 -0.286642 0.000000 
-0.070436 -0.484965 -0.803521 36 41 30 0.925335 0.358860 -0.122370 0.000000 
-0.117456 -0.497788 -1.423171 142 144 136 0.922984 0.384469 0.016829 0.000000 
-0.020600 -0.496029 -0.459861 47 59 42 -0.211521 -0.948432 -0.236084 0.000000 
-0.080367 -0.481094 -1.361473 119 110 84 -0.925895 -0.332985 0.178435 0.000000 
-0.106416 -0.508049 -1.414095 102 94 61 0.815878 -0.577625 0.026319 0.000000 
-0.062708 -0.496469 -0.733296 50 60 46 0.912058 0.394441 -0.112104 0.000000 
-0.041137 -0.497137 -0.628940 45 54 32 0.518334 -0.839137 -0.164857 0.000000 
-0.087017 -0.471740 -1.430061 101 96 75 0.445466 0.892310 0.073095 0.000000 
-0.103852 -0.492017 -1.577595 105 95 55 0.906539 -0.377844 -0.188204 0.000000 
-0.042998 -0.483251 -0.732713 69 73 50 -0.983598 0.112239 0.141204 0.000000 
-0.073297 -0.485510 -0.835245 65 71 58 0.917753 0.370174 -0.143879 0.000000 
-0.051375 -0.494557 -0.698690 59 64 34 0.296362 0.949675 -0.101422 0.000000 
-0.004119 -0.492675 -0.370342 73 76 72 -0.919831 -0.380197 0.096753 0.000000 
-0.081394 -0.497085 -1.094757 56 61 39 0.867295 -0.491794 -0.077062 0.000000 
-0.004939 -0.493427 -0.405110 62 70 48 0.989421 0.012326 -0.144547 0.000000 
-0.068690 -0.496160 -0.824451 65 78 62 0.626077 -0.710201 -0.321936 0.000000 
-0.064838 -0.492825 -0.902516 48 52 28 0.446678 -0.889154 -0.099417 0.000000 
-0.045555 -0.473271 -0.670913 61 68 60 -0.133583 0.970701 0.199738 0.000000 
-0.089919 -0.500171 -1.283423 113 101 68 0.766887 -0.601999 -0.222444 0.000000 
-0.064398 -0.485751 -1.019087 63 62 42 -0.893770 0.443453 -0.067273 0.000000 
-0.080261 -0.491392 -1.292454 118 107 69 -0.743494 0.668729 0.004154 0.000000 
-0.104100 -0.495629 -1.706373 97 89 47 -0.876380 0.476384 0.070833 0.000000 
-0.014285 -0.478563 -0.492890 69 78 67 0.948015 0.160933 -0.274532 0.000000 
-0.104705 -0.503274 -1.565424 104 94 59 0.885040 -0.450334 0.117911 0.000000 
-0.076268 -0.485845 -1.288806 133 123 90 -0.821505 0.507811 -0.259341 0.000000 
-0.067342 -0.473544 -1.023835 84 83 60 0.665379 0.746285 -0.018134 0.000000 
-0.015584 -0.474658 -0.437809 70 74 57 0.052967 -0.992841 -0.107060 0.000000 
-0.080609 -0.496220 -1.197959 111 97 57 0.970531 -0.202247 -0.131015 0.000000 
-0.007330 -0.484489 -0.202998 71 74 54 0.962487 -0.166761 -0.214032 0.000000 
-0.061807 -0.493591 -0.810230 40 46 32 -0.208650 -0.977973 0.005828 0.000000 
-0.072809 -0.484757 -1.206610 108 96 65 -0.969690 0.242118 0.032850 0.000000 
-0.076984 -0.493981 -0.938636 74 77 41 0.860633 0.502857 0.080288 0.000000 
-0.106250 -0.472562 -1.234363 89 87 75 0.602395 -0.798139 0.009649 0.000000 
-0.034461 -0.499926 -0.552619 57 64 50 -0.766973 -0.641240 -0.023750 0.000000 
-0.103940 -0.474817 -1.918946 82 83 64 -0.845076 -0.482683 0.229922 0.000000 
-0.036001 -0.479792 -0.666938 54 60 47 0.994639 0.020699 -0.101316 0.000000 
-0.051652 -0.475755 -0.814125 77 83 74 0.951984 0.304785 -0.028848 0.000000 
-0.099609 -0.499299 -1.344977 103 91 51 0.909655 -0.415362 -0.001294 0.000000 
-0.087992 -0.479350 -1.043615 72 69 52 0.899594 -0.338271 0.276230 0.000000 
-0.103232 -0.498977 -1.482365 108 98 63 -0.936863 0.255508 -0.238753 0.000000 
-0.000600 -0.487574 -0.256580 59 63 51 0.492992 -0.866598 0.077249 0.000000 
-0.105192 -0.471999 -1.890441 64 62 39 0.739754 0.672631 -0.018179 0.000000 
-0.032232 -0.494398 -0.609876 57 63 41 -0.643950 0.764603 0.026656 0.000000 
-0.059317 -0.489308 -0.888115 54 57 30 -0.597522 0.801756 -0.012420 0.000000 
-0.075608 -0.488203 -1.265501 98 91 67 -0.968072 0.209556 0.137561 0.000000 
-0.092469 -0.475117 -1.523396 101 98 73 0.693900 0.719338 0.032504 0.000000 
-0.056653 -0.482289 -0.669190 63 69 62 -0.970365 0.213809 0.112598 0.000000 
-0.089980 -0.476926 -1.574805 118 115 98 0.599020 0.800090 -0.032115 0.000000 
-0.075741 -0.495163 -1.065729 60 60 29 0.285899 -0.957575 -0.036206 0.000000 
-0.111689 -0.473723 -1.794276 80 78 51 0.393390 -0.917015 -0.065789 0.000000 
-0.012599 -0.485753 -0.490428 46 51 35 0.992440 -0.080899 -0.092294 0.000000 
-0.038568 -0.478553 -0.714642 108 109 95 -0.980656 -0.019823 0.194732 0.000000 
-0.017699 -0.498816 -0.331043 78 88 88 0.903171 -0.428376 0.027851 0.000000 
-0.108211 -0.468451 -1.825711 82 81 51 0.067905 -0.997687 0.003134 0.000000 
-0.100702 -0.493207 -1.245308 99 92 64 -0.427862 -0.903843 -0.001300 0.000000 
-0.058828 -0.476442 -0.951348 104 105 76 -0.974317 -0.219616 0.049747 0.000000 
-0.055033 -0.477978 -0.869171 87 91 69 0.985024 0.086949 -0.148885 0.000000 
-0.094535 -0.468951 -1.399225 108 102 82 -0.508885 -0.850086 0.135606 0.000000 
-0.061900 -0.486137 -0.980336 76 75 41 -0.937800 0.343034 0.053477 0.000000 
-0.086057 -0.503965 -1.135541 66 67 43 -0.960108 0.274854 0.051457 0.000000 
-0.044989 -0.486279 -0.758920 70 74 47 0.987575 -0.147382 -0.054543 0.000000 
-0.069463 -0.476568 -1.131595 112 104 68 0.817774 -0.205586 0.537569 0.000000 
-0.075582 -0.484406 -1.304605 118 113 97 0.968373 0.156023 -0.194706 0.000000 
-0.092275 -0.489038 -1.082461 72 71 52 0.565649 0.824388 -0.020644 0.000000 
-0.069859 -0.496046 -0.890492 65 69 40 -0.363147 0.475131 0.801483 0.000000 
-0.111605 -0.471737 -1.555926 74 68 30 -0.790022 0.609364 0.067388 0.000000 
0.007954 -0.494666 -0.274488 61 72 59 -0.958917 -0.149048 0.241378 0.000000 
-0.019842 -0.503984 -0.313408 97 105 93 -0.974629 0.198420 0.103578 0.000000 
-0.094010 -0.474833 -1.664729 110 109 92 0.468881 0.858367 -0.208225 0.000000 
-0.071694 -0.485836 -0.822029 52 57 43 0.840575 0.534130 -0.090215 0.000000 
-0.075294 -0.451631 -1.081470 84 82 67 0.983442 -0.181190 0.003419 0.000000 
-0.079958 -0.501061 -1.004079 54 61 43 -0.788492 0.609092 0.085360 0.000000 
-0.067170 -0.474224 -1.056683 82 78 46 0.811489 0.584327 -0.006842 0.000000 
-0.052827 -0.477884 -0.837322 63 68 56 -0.992056 -0.124975 -0.014378 0.000000 
-0.041269 -0.472952 -0.654252 79 86 81 -0.199029 -0.936687 -0.288104 0.000000 
-0.067487 -0.474693 -0.797061 71 75 61 -0.777104 0.628684 0.029404 0.000000 
-0.075346 -0.454449 -1.076282 105 98 75 0.621963 -0.635374 0.457671 0.000000 
-0.095536 -0.495860 -1.433859 108 93 46 -0.252200 0.957305 0.141285 0.000000 
-0.055423 -0.490559 -0.837704 57 59 32 -0.745657 0.657064 -0.110741 0.000000 
-0.083936 -0.474029 -0.956353 87 89 77 -0.981369 0.170620 -0.088335 0.000000 
-0.060181 -0.473004 -0.779406 66 71 58 -0.378486 0.924455 -0.046157 0.000000 
-0.001984 -0.511383 -0.283862 46 52 28 0.276063 -0.950884 -0.140032 0.000000 
-0.103451 -0.510718 -1.553045 122 117 103 -0.766068 0.633734 -0.107338 0.000000 
-0.108298 -0.504082 -1.726025 93 86 46 0.989588 -0.142654 0.019095 0.000000 
-0.066815 -0.491894 -0.951131 51 53 27 0.711009 -0.702561 -0.029567 0.000000 
-0.051839 -0.492021 -0.633775 67 72 59 0.625989 0.778601 -0.043805 0.000000 
-0.128626 -0.481528 -1.782036 73 71 38 -0.304252 0.952494 -0.013660 0.000000 
-0.074110 -0.490796 -1.212864 115 110 94 0.644508 -0.763494 -0.041079 0.000000 
-0.099562 -0.467036 -1.403449 82 80 66 -0.441244 0.883935 -0.154797 0.000000 
-0.098953 -0.486889 -1.132830 99 90 66 0.497198 0.618548 -0.608435 0.000000 
-0.126243 -0.479211 -1.760771 70 67 34 0.452678 -0.890404 0.047579 0.000000 
-0.093739 -0.478166 -1.563673 95 92 67 -0.687365 -0.726247 -0.009720 0.000000 
-0.075457 -0.486164 -1.311735 145 138 118 0.992981 0.115977 0.023195 0.000000 
-0.046199 -0.487140 -0.583136 42 49 38 -0.974869 0.113881 0.191470 0.000000 
-0.085573 -0.489734 -1.086514 65 61 32 -0.363654 -0.929631 -0.059507 0.000000 
-0.085591 -0.502843 -1.166983 101 93 70 0.767178 -0.573398 -0.287493 0.000000 
-0.016406 -0.518024 -0.332244 49 56 43 -0.371742 0.862257 0.343977 0.000000 
-0.071348 -0.490083 -1.034005 55 54 27 -0.692686 0.710562 0.123641 0.000000 
-0.038561 -0.492695 -0.559421 41 46 36 0.700058 0.713976 -0.012526 0.000000 
-0.061939 -0.490795 -0.885587 55 58 31 0.684993 -0.720500 0.108001 0.000000 
-0.073200 -0.489361 -0.871991 40 44 31 0.688109 0.681782 -0.248352 0.000000 
-0.071085 -0.467716 -1.056164 67 61 27 0.979718 0.185287 -0.076295 0.000000 
-0.074597 -0.494924 -1.083109 55 56 27 -0.542740 0.825262 0.156131 0.000000 
-0.040779 -0.494450 -0.667862 52 60 43 0.832401 -0.553553 0.026228 0.000000 
-0.099148 -0.493141 -1.136725 120 114 91 -0.521019 -0.558114 0.645793 0.000000 
-0.020458 -0.498743 -0.430080 45 57 41 0.377318 0.923961 0.062664 0.000000 
-0.113276 -0.477867 -1.349394 77 77 58 -0.754698 0.649595 0.091965 0.000000 
-0.019834 -0.493888 -0.482140 51 57 46 -0.009645 -0.995597 -0.093237 0.000000 
-0.008723 -0.480133 -0.420860 58 64 54 0.801987 0.582589 -0.131935 0.000000 
-0.023921 -0.493703 -0.533461 53 61 45 0.767241 -0.640541 0.032379 0.000000 
-0.061351 -0.482647 -0.706178 44 50 39 -0.924506 0.362954 0.116419 0.000000 
-0.098674 -0.497391 -1.335556 104 91 48 -0.118006 0.970691 -0.209365 0.000000 
-0.051208 -0.489887 -0.617865 41 47 36 0.690279 0.696456 -0.196120 0.000000 
-0.057793 -0.474790 -0.732824 62 66 52 0.495884 -0.855729 -0.147741 0.000000 
-0.024997 -0.484793 -0.578597 72 78 59 0.974090 0.090584 -0.207227 0.000000 
-0.064038 -0.470032 -1.092289 93 84 49 0.845361 -0.488465 0.216255 0.000000 
-0.094322 -0.493637 -1.503231 115 103 66 0.496318 -0.864690 -0.077330 0.000000 
-0.067728 -0.468180 -0.900394 72 73 63 0.418813 -0.907649 0.027745 0.000000 
-0.043616 -0.480852 -0.736304 55 60 49 -0.973392 -0.065056 0.219719 0.000000 
-0.016774 -0.482504 -0.521608 65 72 60 -0.987924 0.059345 0.143127 0.000000 
-0.061613 -0.490095 -0.878016 58 62 36 -0.478389 0.830558 0.285163 0.000000 
-0.091815 -0.480654 -1.594704 114 104 64 0.954728 -0.291899 -0.057360 0.000000 
-0.073465 -0.492000 -1.077518 61 61 35 -0.693505 0.702610 -0.159339 0.000000 
-0.025661 -0.489629 -0.447801 43 51 40 -0.786021 -0.595927 0.164446 0.000000 
-0.020799 -0.502085 -0.336278 56 62 49 -0.967417 0.161451 0.195033 0.000000 
-0.091247 -0.501750 -1.249670 111 99 65 0.318445 -0.947842 -0.013737 0.000000 
-0.030014 -0.498949 -0.504541 62 68 54 -0.429239 0.900720 0.066770 0.000000 
-0.013669 -0.500732 -0.292618 71 77 68 0.937111 -0.343038 -0.064402 0.000000 
-0.110369 -0.478032 -1.343549 96 91 60 0.967547 -0.212012 -0.137487 0.000000 
-0.056298 -0.482336 -0.914324 85 85 54 0.996292 -0.080955 0.029144 0.000000 
-0.091910 -0.470256 -1.371275 87 82 64 0.598314 0.800991 -0.020823 0.000000 
-0.046226 -0.484980 -0.810743 83 87 84 0.998204 -0.041283 -0.043400 0.000000 
-0.066020 -0.492000 -0.948728 51 53 27 -0.686401 0.676845 0.265960 0.000000 
-0.102441 -0.481737 -1.877720 69 66 37 -0.998516 -0.045148 0.030449 0.000000 
-0.115231 -0.477727 -1.696263 97 91 64 0.414325 0.908277 -0.058033 0.000000 
-0.100136 -0.507172 -1.284957 103 96 72 0.539632 -0.837361 0.087315 0.000000 
-0.054628 -0.490950 -0.831789 56 61 42 0.732936 -0.674419 -0.089240 0.000000 
-0.120881 -0.475503 -1.618411 70 67 40 -0.565850 0.822670 0.055033 0.000000 
-0.019294 -0.470420 -0.471140 83 85 73 -0.134181 0.989729 -0.049314 0.000000 
-0.094642 -0.493488 -1.273587 103 90 48 0.372357 -0.756096 0.538210 0.000000 
-0.029831 -0.490054 -0.490617 61 68 44 0.782623 0.606046 -0.142159 0.000000 
-0.078948 -0.491351 -1.193779 108 95 56 -0.862574 0.499533 0.080207 0.000000 
-0.004845 -0.509617 -0.329495 42 52 32 0.705005 -0.705005 -0.077042 0.000000 
-0.095294 -0.494332 -1.398064 115 100 55 0.164106 -0.975866 0.144062 0.000000 
-0.099984 -0.479167 -1.750816 83 79 47 -0.938978 -0.301078 -0.166349 0.000000 
-0.007462 -0.509544 -0.215868 94 96 68 -0.525883 0.673735 0.519162 0.000000 
-0.075005 -0.478750 -1.259463 119 110 83 -0.983257 -0.017331 0.181400 0.000000 
-0.083103 -0.482839 -1.392141 123 112 82 0.931838 0.362873 0.001264 0.000000 
-0.006820 -0.506116 -0.211565 125 122 107 0.880643 0.439591 0.176713 0.000000 
-0.109928 -0.479850 -1.295439 84 84 62 -0.972934 0.227139 -0.042513 0.000000 
-0.021452 -0.500108 -0.355978 55 60 47 0.950600 -0.274083 -0.145732 0.000000 
-0.031177 -0.498916 -0.550944 53 61 43 -0.394556 0.875279 -0.279666 0.000000 
-0.071685 -0.470000 -1.005197 95 94 76 -0.722229 -0.687353 -0.077018 0.000000 
-0.075351 -0.492535 -0.986969 49 53 39 0.596203 0.784318 0.171427 0.000000 
-0.053004 -0.495242 -0.726339 71 76 62 0.033944 -0.878477 0.476577 0.000000 
-0.106139 -0.499922 -1.534472 106 94 46 -0.970434 0.178191 0.162807 0.000000 
-0.072484 -0.468246 -1.018691 95 93 72 -0.805804 -0.555041 -0.206420 0.000000 
-0.107064 -0.500501 -1.715479 95 87 46 -0.949791 0.265402 0.165708 0.000000 
-0.058357 -0.488349 -0.673336 54 59 36 -0.891217 -0.408292 0.197560 0.000000 
-0.018461 -0.487844 -0.370743 76 79 71 0.800766 -0.596677 -0.052440 0.000000 
-0.010315 -0.495405 -0.261278 90 96 89 0.945905 -0.237506 -0.221031 0.000000 
-0.075092 -0.496794 -1.020383 71 70 33 -0.681244 0.687566 -0.251317 0.000000 
-0.011285 -0.514315 -0.299654 50 58 46 0.720746 0.655082 -0.226699 0.000000 
-0.072675 -0.473862 -0.823832 99 99 92 0.854385 -0.503348 -0.129101 0.000000 
-0.023874 -0.493829 -0.423810 96 104 103 -0.772811 -0.634562 0.009677 0.000000 
-0.067690 -0.479895 -0.787506 64 69 56 0.944574 -0.190560 -0.267332 0.000000 
-0.026903 -0.470176 -0.510711 83 85 73 0.183970 -0.959556 -0.213088 0.000000 
-0.101245 -0.496707 -1.292298 90 83 52 0.760886 0.608398 0.225621 0.000000 
-0.133540 -0.467891 -1.959944 93 92 76 -0.211323 0.912859 0.349330 0.000000 
-0.093258 -0.495885 -1.407565 108 94 46 0.274399 -0.954490 0.116850 0.000000 
-0.058164 -0.476375 -0.703092 47 53 42 0.741084 -0.669963 -0.044095 0.000000 
-0.052827 -0.477948 -0.839720 67 73 60 0.991235 0.129096 0.028064 0.000000 
-0.045512 -0.495659 -0.694289 51 59 40 -0.591840 0.799350 0.103755 0.000000 
-0.059006 -0.476474 -0.947001 76 78 54 0.936812 0.328493 -0.120312 0.000000 
-0.079664 -0.493850 -1.187216 102 91 60 0.864958 -0.501756 0.009416 0.000000 
-0.079306 -0.482061 -1.367492 125 120 107 0.966054 0.247481 -0.074119 0.000000 
-0.057575 -0.495629 -0.784476 44 52 29 0.250414 0.942167 0.222744 0.000000 
-0.103193 -0.498949 -1.414552 107 93 47 -0.696104 0.462400 0.549204 0.000000 
-0.063867 -0.475009 -1.011549 92 91 60 -0.731655 -0.680904 -0.032424 0.000000 
-0.102274 -0.478163 -1.157300 80 77 60 -0.907886 0.413909 -0.066497 0.000000 
-0.100430 -0.489777 -1.613069 107 97 54 0.778766 -0.625566 0.046811 0.000000 
-0.069736 -0.471199 -0.912930 63 68 56 -0.263618 0.963266 -0.051224 0.000000 
-0.014427 -0.510772 -0.329674 43 50 38 -0.411772 -0.911128 -0.016994 0.000000 
0.005736 -0.476656 -0.234805 91 98 86 0.236081 -0.867636 0.437577 0.000000 
-0.028257 -0.493493 -0.472593 52 62 48 0.017100 -0.165299 0.986095 0.000000 
-0.104421 -0.500226 -1.434400 111 97 51 -0.974783 -0.044693 -0.218632 0.000000 
-0.105132 -0.473563 -1.344000 92 87 64 0.574766 -0.813892 -0.084991 0.000000 
-0.051669 -0.498091 -0.766441 123 123 107 -0.038226 -0.999034 0.021696 0.000000 
-0.080974 -0.472902 -1.016755 85 87 66 0.691358 -0.720105 -0.058931 0.000000 
-0.082881 -0.495399 -1.296526 120 110 75 0.555771 -0.808532 -0.193378 0.000000 
-0.098288 -0.497260 -1.495362 111 101 68 0.389901 -0.920272 -0.032820 0.000000 
0.013472 -0.495474 -0.233496 60 65 39 0.999139 0.034026 -0.023715 0.000000 
-0.103776 -0.492920 -1.692403 99 90 47 0.808757 -0.586525 -0.043603 0.000000 
-0.104131 -0.501129 -1.441785 106 98 69 -0.992728 -0.082822 0.087360 0.000000 
-0.081552 -0.484888 -1.424037 126 115 78 0.911597 0.398565 0.100676 0.000000 
-0.008167 -0.479102 -0.424683 58 65 54 -0.870607 -0.449393 -0.200225 0.000000 
-0.073152 -0.476430 -1.115792 97 88 50 0.836587 -0.532905 -0.127021 0.000000 
-0.069817 -0.471220 -0.910186 65 69 54 0.284524 -0.957266 0.051847 0.000000 
-0.036003 -0.485210 -0.664146 68 72 47 0.930475 -0.355809 -0.087274 0.000000 
-0.009473 -0.483904 -0.461522 58 69 57 0.990630 -0.067883 -0.118507 0.000000 
-0.072749 -0.470583 -0.896539 62 65 57 -0.613248 0.783025 -0.103916 0.000000 
-0.076519 -0.500536 -1.042579 52 52 34 -0.366895 0.832994 -0.414135 0.000000 
-0.009834 -0.495209 -0.432333 54 62 47 0.443637 -0.894099 -0.061427 0.000000 
-0.002957 -0.493000 -0.310237 58 65 62 -0.303207 -0.891698 0.336067 0.000000 
-0.070066 -0.473206 -0.833568 55 60 50 0.680131 -0.732984 -0.012518 0.000000 
-0.092993 -0.480464 -1.657383 104 94 53 0.969137 -0.240741 -0.053086 0.000000 
-0.072672 -0.451925 -1.054965 135 129 109 0.793488 -0.595485 0.125599 0.000000 
-0.076642 -0.475118 -1.212773 100 94 75 -0.545511 -0.827824 0.130864 0.000000 
-0.059742 -0.475972 -0.950289 77 79 55 0.946632 0.321426 -0.023949 0.000000 
-0.104563 -0.501456 -1.441527 106 97 69 -0.993424 -0.048051 0.103924 0.000000 
-0.100448 -0.477722 -1.712929 102 93 54 -0.856842 -0.513552 -0.045680 0.000000 
-0.074812 -0.472015 -1.208874 102 94 74 0.634636 0.766547 0.098200 0.000000 
-0.019650 -0.471584 -0.504870 59 64 54 -0.136743 -0.990556 -0.010006 0.000000 
-0.008516 -0.517830 -0.192675 151 151 140 0.911718 0.242062 0.331929 0.000000 
-0.007808 -0.498838 -0.248056 65 69 56 0.999162 0.039885 -0.009204 0.000000 
-0.030199 -0.482731 -0.487237 78 87 84 -0.971129 0.177381 0.159515 0.000000 
-0.023162 -0.492640 -0.496963 39 47 36 -0.252472 -0.967198 0.028052 0.000000 
-0.057678 -0.484213 -0.901872 69 70 41 0.953974 -0.291456 -0.070617 0.000000 
-0.076479 -0.473339 -1.297934 123 119 104 0.779978 0.624266 0.043883 0.000000 
-0.106277 -0.467452 -1.288730 71 69 57 0.422463 -0.843368 -0.332047 0.000000 
-0.047867 -0.485437 -0.782070 53 57 38 -0.970701 0.199738 0.133583 0.000000 
-0.011661 -0.509535 -0.354783 46 53 28 -0.068976 0.987870 0.139120 0.000000 
-0.082273 -0.497976 -1.186168 118 109 77 -0.693264 0.711078 0.117276 0.000000 
-0.089222 -0.470038 -1.198425 111 104 76 0.020792 0.962552 0.270297 0.000000 
-0.070612 -0.495456 -0.812400 48 57 44 -0.691955 -0.679345 0.244312 0.000000 
-0.100231 -0.468340 -1.432730 78 76 53 0.651633 -0.744939 -0.142968 0.000000 
0.000191 -0.505323 -0.322802 51 56 41 0.903760 -0.393873 -0.167575 0.000000 
-0.075622 -0.494934 -1.028438 50 55 29 -0.007342 -0.997501 -0.070276 0.000000 
-0.093032 -0.499319 -1.137209 121 114 90 -0.771013 -0.315779 0.553013 0.000000 
-0.075891 -0.494840 -1.069459 56 59 34 0.555716 -0.753376 -0.351575 0.000000 
-0.075880 -0.484809 -1.299181 102 95 72 0.995315 0.042797 0.086692 0.000000 
-0.002710 -0.508102 -0.328633 54 62 46 0.750285 -0.660865 0.018163 0.000000 
-0.036504 -0.488644 -0.650823 59 63 38 -0.907600 0.404459 0.112581 0.000000 
-0.010425 -0.501790 -0.383676 42 50 29 -0.334290 0.931335 0.144446 0.000000 
-0.084404 -0.472188 -1.026334 83 81 69 0.742413 -0.669158 0.032401 0.000000 
-0.083304 -0.492586 -1.116018 57 57 39 0.330368 0.923046 0.197087 0.000000 
0.008575 -0.511497 -0.209899 114 114 91 -0.293447 0.500586 0.814434 0.000000 
-0.070090 -0.470353 -1.072294 62 54 19 0.977984 0.049199 0.202797 0.000000 
-0.044532 -0.496099 -0.663783 49 58 36 0.112237 -0.991998 0.057819 0.000000 
-0.092089 -0.481104 -1.686039 113 109 89 -0.782031 0.622547 -0.029379 0.000000 
-0.088463 -0.479372 -1.506134 103 98 74 -0.970628 -0.229918 0.070840 0.000000 
-0.043981 -0.496255 -0.660614 57 63 53 0.276299 -0.954605 -0.111305 0.000000 
-0.106033 -0.502808 -1.393022 104 94 60 0.878214 -0.421960 0.225145 0.000000 
-0.013900 -0.497467 -0.424792 47 55 45 0.148443 -0.983586 0.102583 0.000000 
-0.058232 -0.470525 -0.895434 78 82 71 -0.607311 -0.791083 0.073222 0.000000 
-0.060449 -0.481255 -0.995323 67 70 58 0.985441 -0.130514 -0.108961 0.000000 
-0.040585 -0.496731 -0.636881 53 62 46 -0.517733 0.854605 -0.040038 0.000000 
-0.027706 -0.478677 -0.590884 83 89 76 0.941841 0.309443 -0.131074 0.000000 
-0.057858 -0.479395 -0.933759 66 69 47 -0.976089 -0.056989 0.209768 0.000000 
-0.004920 -0.496682 -0.369918 95 103 92 0.999913 -0.012883 0.002973 0.000000 
-0.104816 -0.508418 -1.572948 105 96 62 0.887198 -0.423932 0.182101 0.000000 
-0.101351 -0.489384 -1.237038 83 77 49 0.727869 0.681379 -0.077000 0.000000 
-0.086777 -0.498603 -1.122435 64 68 42 0.988541 0.026104 0.148678 0.000000 
-0.019139 -0.511137 -0.363478 44 56 40 0.748597 -0.638374 -0.179112 0.000000 
-0.093794 -0.496134 -1.329301 107 93 48 0.632776 -0.719283 -0.286752 0.000000 
-0.087990 -0.481215 -1.496039 127 117 87 0.995733 0.049402 -0.077946 0.000000 
