ply
format ascii 1.0
comment Created by Open3D
obj_info Generated by CloudCompare!
element vertex 627
property float x
property float y
property float z
property uchar red
property uchar green
property uchar blue
property float nx
property float ny
property float nz
property float scalar_leaf1
end_header
0.695537 -0.471314 0.263575 77 66 26 0.057454 -0.986093 -0.155946 0.000000 
0.490683 -0.436435 -0.060402 69 61 44 -0.627304 -0.689543 0.361969 0.000000 
0.544926 -0.442984 0.014365 75 74 65 -0.453920 0.648218 0.611368 0.000000 
0.654553 -0.455408 0.213160 77 74 46 -0.134454 -0.989447 0.054012 0.000000 
0.857310 -0.525911 0.447072 70 68 46 0.829699 -0.078543 -0.552657 0.000000 
0.486128 -0.424199 -0.053366 47 38 22 0.948384 -0.047355 -0.313568 0.000000 
0.578174 -0.438587 0.069873 105 109 95 -0.561055 -0.795987 0.227204 0.000000 
0.529123 -0.429930 0.014555 69 65 46 0.064098 0.940543 0.333572 0.000000 
0.642318 -0.461436 0.159995 59 60 39 -0.830752 -0.345227 0.436657 0.000000 
0.675833 -0.494017 0.309115 98 97 74 -0.327785 0.910515 0.252031 0.000000 
0.859815 -0.529953 0.502439 82 76 45 0.117303 -0.917722 -0.379509 0.000000 
0.908418 -0.553415 0.563976 80 73 42 0.650218 0.719491 -0.244029 0.000000 
0.781099 -0.508676 0.401591 83 71 32 0.105267 -0.942071 -0.318465 0.000000 
0.816276 -0.520367 0.469354 109 98 56 0.056561 -0.932595 -0.356465 0.000000 
0.611473 -0.473829 0.183470 72 62 25 0.739350 -0.185990 -0.647124 0.000000 
0.889551 -0.554073 0.559259 105 82 41 0.153654 0.988094 0.007851 0.000000 
0.505107 -0.438057 -0.053056 73 70 59 0.260005 -0.964851 -0.038200 0.000000 
0.883066 -0.539497 0.512479 68 66 42 0.598060 0.790983 -0.129110 0.000000 
0.811288 -0.505485 0.416511 88 84 55 0.121097 0.932040 0.341521 0.000000 
0.627009 -0.465460 0.223704 93 92 73 0.424183 -0.798367 -0.427409 0.000000 
0.472304 -0.411543 -0.074800 50 43 27 0.665965 0.035348 0.745145 0.000000 
0.683057 -0.484097 0.301230 104 83 29 0.357511 -0.847723 -0.391857 0.000000 
0.867597 -0.529227 0.491274 63 61 34 0.362153 0.861462 -0.355989 0.000000 
0.673913 -0.491001 0.307991 108 89 40 0.093969 0.882186 0.461430 0.000000 
0.685521 -0.475875 0.224804 69 63 41 0.247621 -0.963541 -0.101358 0.000000 
0.621121 -0.484477 0.222454 109 100 69 -0.145461 -0.989358 -0.003331 0.000000 
0.892210 -0.557031 0.568730 103 84 32 -0.128107 0.924299 0.359526 0.000000 
0.876937 -0.536816 0.498304 69 67 46 -0.596134 -0.795334 0.109853 0.000000 
0.640059 -0.445744 0.183467 78 83 71 -0.655217 -0.749029 0.098209 0.000000 
0.888170 -0.544745 0.516147 97 90 57 0.792424 0.604783 -0.079387 0.000000 
0.577855 -0.444291 0.122141 75 72 52 -0.277611 0.906277 0.318739 0.000000 
0.762473 -0.490609 0.313415 78 74 60 -0.121092 0.959620 0.253902 0.000000 
0.710405 -0.478667 0.279982 72 64 30 0.074785 -0.962062 -0.262381 0.000000 
0.747039 -0.497289 0.359746 82 72 32 0.113542 -0.944402 -0.308567 0.000000 
0.492259 -0.410590 -0.062152 62 58 36 0.816339 0.562432 -0.131382 0.000000 
0.566289 -0.454513 0.047928 51 57 44 -0.282279 0.891642 0.353968 0.000000 
0.782350 -0.518028 0.441411 110 86 44 0.086511 0.995427 -0.040518 0.000000 
0.729626 -0.503979 0.374541 117 95 39 -0.098658 0.948432 0.301236 0.000000 
0.576023 -0.468758 0.132057 95 90 65 -0.730384 -0.659949 0.176088 0.000000 
0.678971 -0.454228 0.222938 62 65 44 0.123335 0.750410 0.649364 0.000000 
0.616548 -0.478781 0.200012 72 72 49 -0.887284 0.340801 0.310775 0.000000 
0.637664 -0.464828 0.150302 52 57 33 0.769609 0.029439 -0.637836 0.000000 
0.591340 -0.444530 0.144766 79 81 68 0.491531 -0.795736 -0.353838 0.000000 
0.845530 -0.517953 0.430697 52 53 32 -0.847815 -0.476420 0.232883 0.000000 
0.900305 -0.553722 0.525568 113 109 93 0.479927 0.869600 0.116042 0.000000 
0.758278 -0.479450 0.300744 43 45 21 -0.662965 -0.555548 0.501840 0.000000 
0.595055 -0.459639 0.104194 62 59 42 0.254137 0.965221 0.061343 0.000000 
0.658626 -0.457868 0.187783 63 61 38 -0.737617 -0.499995 0.453791 0.000000 
0.635336 -0.459337 0.218812 94 95 66 0.125986 -0.858729 -0.496702 0.000000 
0.622450 -0.465823 0.140415 66 63 48 0.245622 0.966112 -0.079355 0.000000 
0.882199 -0.554933 0.564878 110 93 46 -0.140535 -0.948945 -0.282408 0.000000 
0.829165 -0.529499 0.463585 73 58 27 -0.063650 -0.905999 -0.418466 0.000000 
0.872940 -0.533947 0.490486 69 66 38 0.741944 0.658345 -0.126892 0.000000 
0.917247 -0.557846 0.566219 78 74 51 0.364269 0.898137 -0.246287 0.000000 
0.678048 -0.482898 0.292370 98 82 32 -0.348852 0.825563 0.443563 0.000000 
0.731645 -0.497227 0.358719 102 87 40 0.027298 0.976791 0.212449 0.000000 
0.798555 -0.498845 0.353899 81 75 59 -0.527122 0.503695 0.684422 0.000000 
0.500894 -0.431577 -0.019836 78 68 45 0.849400 0.484294 -0.209710 0.000000 
0.679319 -0.467667 0.212380 56 58 34 -0.748380 0.216268 0.627021 0.000000 
0.675942 -0.476896 0.262704 75 63 33 0.160694 -0.923643 -0.347938 0.000000 
0.893542 -0.551534 0.570127 147 125 78 -0.131922 -0.960028 -0.246864 0.000000 
0.471673 -0.409604 -0.094292 64 69 53 -0.772347 -0.064482 0.631920 0.000000 
0.598624 -0.457694 0.137878 49 40 11 -0.029840 -0.993549 0.109412 0.000000 
0.625068 -0.480978 0.233006 112 104 76 0.892791 0.356222 -0.275737 0.000000 
0.771124 -0.504507 0.376818 75 63 18 0.017310 -0.890804 -0.454057 0.000000 
0.648002 -0.471859 0.176278 61 62 37 -0.157639 -0.983140 0.092658 0.000000 
0.702447 -0.490207 0.325291 104 83 28 0.044906 -0.995608 -0.082146 0.000000 
0.898385 -0.553219 0.522456 80 82 64 -0.640445 -0.660304 0.392211 0.000000 
0.711092 -0.494393 0.316288 93 94 74 -0.023247 0.846461 0.531944 0.000000 
0.678517 -0.480938 0.309101 129 116 71 0.370148 -0.818138 -0.440047 0.000000 
0.694642 -0.474993 0.303054 90 89 60 0.099990 -0.968256 -0.229091 0.000000 
0.755195 -0.484481 0.321664 68 60 30 0.337857 0.919484 0.201003 0.000000 
0.831502 -0.514574 0.406583 52 54 33 0.768432 0.429082 -0.474764 0.000000 
0.745037 -0.482275 0.297863 72 65 41 -0.367738 -0.901032 0.230020 0.000000 
0.510534 -0.440664 -0.032496 52 56 44 0.478312 -0.478312 -0.736502 0.000000 
0.580546 -0.463728 0.122633 49 41 13 0.822690 -0.470333 -0.319323 0.000000 
0.476233 -0.410562 -0.090729 60 65 50 -0.663658 -0.459713 0.590104 0.000000 
0.639291 -0.464845 0.199476 63 51 22 -0.059614 0.993189 0.100106 0.000000 
0.633067 -0.472792 0.223771 85 72 28 -0.363043 0.884258 0.293748 0.000000 
0.785364 -0.519285 0.451480 129 104 40 -0.230526 -0.968711 -0.091958 0.000000 
0.483709 -0.417878 -0.067070 47 39 20 -0.802966 -0.173900 0.570091 0.000000 
0.803997 -0.514643 0.411294 82 71 33 -0.031016 0.959022 0.281628 0.000000 
0.572062 -0.456459 0.075266 71 65 52 0.231234 0.970688 0.065537 0.000000 
0.601361 -0.444515 0.132915 66 68 52 -0.550079 -0.807497 0.212983 0.000000 
0.844455 -0.516480 0.435906 99 91 64 0.631399 0.765107 0.126280 0.000000 
0.496022 -0.417859 -0.069601 83 77 54 0.688790 0.461973 -0.558704 0.000000 
0.607159 -0.441287 0.155716 76 82 66 0.487757 -0.739075 -0.464609 0.000000 
0.830525 -0.538596 0.525828 100 97 74 0.493283 -0.641437 -0.587563 0.000000 
0.703240 -0.477380 0.314681 105 99 59 0.131555 -0.920884 -0.366969 0.000000 
0.550470 -0.438080 0.017385 66 67 47 0.858436 -0.001339 -0.512919 0.000000 
0.886215 -0.547277 0.503235 76 76 54 0.808791 -0.052226 -0.585773 0.000000 
0.790002 -0.523920 0.480089 142 127 98 -0.086166 -0.676182 -0.731679 0.000000 
0.854522 -0.533203 0.518966 98 84 45 0.045370 0.969932 0.239111 0.000000 
0.870234 -0.543081 0.518787 78 60 24 -0.122816 -0.990563 -0.060834 0.000000 
0.577539 -0.473574 0.132102 81 86 72 0.444603 0.728884 0.520631 0.000000 
0.594934 -0.463984 0.117691 60 57 43 0.256994 0.947750 -0.189006 0.000000 
0.491357 -0.418063 -0.028896 49 39 21 0.840421 0.541544 0.020565 0.000000 
0.706687 -0.491232 0.330570 105 84 29 -0.018769 -0.992555 -0.120343 0.000000 
0.521719 -0.424639 -0.029697 68 72 54 0.506258 0.857073 0.095547 0.000000 
0.712749 -0.471573 0.251342 54 53 33 0.795340 0.138255 -0.590187 0.000000 
0.855441 -0.546327 0.515525 103 95 76 -0.244354 -0.936922 -0.249939 0.000000 
0.515451 -0.429713 -0.046429 50 53 32 0.862714 0.230358 -0.450177 0.000000 
0.597564 -0.476891 0.169020 83 77 42 -0.328911 -0.880632 -0.341036 0.000000 
0.559149 -0.439159 0.047850 76 71 46 0.221141 0.967652 0.121436 0.000000 
0.478183 -0.436791 -0.078880 72 65 43 -0.245248 -0.900223 -0.359795 0.000000 
0.666278 -0.455498 0.193379 109 106 87 0.618352 0.297130 -0.727567 0.000000 
0.774532 -0.482745 0.342646 72 75 57 -0.217093 -0.915817 -0.337860 0.000000 
0.565523 -0.439498 0.049070 56 59 42 0.220055 0.966440 -0.132548 0.000000 
0.728730 -0.490626 0.334687 77 69 24 0.056485 -0.979475 -0.193491 0.000000 
0.761754 -0.489562 0.317342 72 67 43 0.404804 0.904110 -0.136815 0.000000 
0.592480 -0.460523 0.099218 54 53 32 -0.074501 -0.996584 0.035631 0.000000 
0.576950 -0.440006 0.083077 59 61 44 0.359971 0.896224 0.259238 0.000000 
0.658071 -0.477546 0.261674 88 74 31 0.161110 -0.923231 -0.348838 0.000000 
0.643245 -0.480244 0.264557 94 81 56 0.816685 -0.447346 -0.364563 0.000000 
0.648153 -0.466491 0.212628 58 45 10 0.027302 0.994891 0.097196 0.000000 
0.770824 -0.493622 0.347941 85 75 32 0.074252 -0.965279 -0.250444 0.000000 
0.705948 -0.478755 0.274812 69 63 31 -0.063245 0.847483 0.527042 0.000000 
0.607352 -0.462371 0.114159 62 56 42 -0.007529 -0.994956 -0.100033 0.000000 
0.708125 -0.479514 0.249648 78 71 53 0.171294 -0.899651 -0.401604 0.000000 
0.505780 -0.431081 -0.061610 88 84 77 -0.785217 -0.015233 0.619033 0.000000 
0.544494 -0.447445 0.053136 38 33 19 0.286556 0.935151 0.208277 0.000000 
0.617257 -0.480853 0.221361 125 118 94 -0.961768 -0.117794 0.247238 0.000000 
0.780916 -0.517998 0.469793 143 124 95 0.329563 -0.285228 -0.900018 0.000000 
0.830410 -0.521224 0.419142 76 71 37 -0.424461 -0.895769 0.132023 0.000000 
0.533019 -0.438259 -0.001231 55 58 42 -0.491081 0.844659 0.213053 0.000000 
0.686056 -0.479603 0.280644 84 72 27 0.024778 0.978136 0.206482 0.000000 
0.706957 -0.495948 0.349206 101 84 30 0.445825 -0.836899 -0.317552 0.000000 
0.527962 -0.444826 -0.001926 100 94 82 0.413320 -0.864769 -0.285206 0.000000 
0.654652 -0.461284 0.234309 86 87 68 -0.280038 0.954736 0.100293 0.000000 
0.476980 -0.408243 -0.082902 45 47 30 -0.471908 -0.833237 0.288129 0.000000 
0.604293 -0.463011 0.113783 59 55 42 0.003049 -0.999209 0.039643 0.000000 
0.864714 -0.550986 0.546938 116 93 40 -0.066490 -0.964739 -0.254671 0.000000 
0.619764 -0.482048 0.211759 89 89 65 -0.488001 0.714513 0.501325 0.000000 
0.901417 -0.563065 0.584196 95 76 47 -0.256473 -0.966331 0.020664 0.000000 
0.664982 -0.469014 0.191300 60 62 46 -0.715702 0.371772 0.591232 0.000000 
0.828016 -0.508127 0.408944 54 54 32 0.706749 0.694745 -0.133547 0.000000 
0.826776 -0.522215 0.412777 73 78 65 0.075091 0.990052 -0.118991 0.000000 
0.522389 -0.442312 0.030017 38 33 20 0.064177 0.962659 0.263001 0.000000 
0.911285 -0.553591 0.572949 90 85 61 0.551135 0.825971 0.118414 0.000000 
0.491744 -0.420961 -0.012863 38 33 20 0.597169 0.801353 0.034963 0.000000 
0.569757 -0.436593 0.102038 78 82 66 0.353810 0.926513 0.128032 0.000000 
0.665071 -0.473486 0.276886 110 103 61 0.285478 -0.877580 -0.385169 0.000000 
0.532145 -0.435399 -0.016325 141 139 120 -0.962652 0.248717 0.106961 0.000000 
0.786904 -0.523543 0.491521 96 88 55 -0.355205 -0.918439 0.174065 0.000000 
0.691593 -0.475268 0.239989 72 64 37 -0.472795 -0.792295 0.385659 0.000000 
0.816698 -0.535168 0.511482 135 126 95 -0.622596 0.026583 0.782092 0.000000 
0.696495 -0.474709 0.272108 74 64 28 0.099088 -0.845836 -0.524160 0.000000 
0.690506 -0.475004 0.298692 98 94 57 -0.162969 0.949529 0.268023 0.000000 
0.724007 -0.493152 0.342782 88 72 35 0.013540 -0.956407 -0.291723 0.000000 
0.594913 -0.464685 0.152173 73 66 34 -0.806104 0.318324 0.498866 0.000000 
0.634257 -0.468306 0.238034 100 98 74 0.549219 -0.724045 -0.417274 0.000000 
0.738304 -0.504327 0.400865 148 124 77 0.174245 -0.949567 -0.260692 0.000000 
0.712823 -0.505844 0.370098 100 82 60 -0.107431 -0.983781 -0.143644 0.000000 
0.792592 -0.500827 0.361675 80 75 50 0.408108 0.908280 0.092065 0.000000 
0.705684 -0.474903 0.242676 55 57 32 0.608552 -0.335921 -0.718903 0.000000 
0.625629 -0.463361 0.181008 57 48 15 -0.144655 -0.944992 0.293367 0.000000 
0.684065 -0.496974 0.332760 113 101 57 -0.230041 -0.912930 0.337104 0.000000 
0.742107 -0.503233 0.398712 97 87 53 0.329641 -0.937795 0.108983 0.000000 
0.759962 -0.498269 0.365925 78 69 28 -0.289419 0.743534 0.602822 0.000000 
0.716166 -0.463553 0.277344 70 73 53 0.804057 -0.594423 0.012413 0.000000 
0.485951 -0.412022 -0.031913 58 51 29 0.847852 0.509887 0.145472 0.000000 
0.810077 -0.528212 0.474456 112 89 33 0.145543 0.961109 0.234705 0.000000 
0.646051 -0.471737 0.236393 79 67 22 0.162449 -0.978415 -0.127727 0.000000 
0.550426 -0.449444 0.030578 51 48 32 0.059558 0.986792 0.150646 0.000000 
0.480775 -0.439082 -0.077939 69 64 45 -0.191703 -0.930527 -0.312041 0.000000 
0.765985 -0.499415 0.388002 84 82 55 0.157025 -0.951546 -0.264393 0.000000 
0.813670 -0.503110 0.377497 47 50 30 0.721717 0.492758 -0.486122 0.000000 
0.526021 -0.437122 -0.017201 53 57 42 0.693596 -0.567185 -0.444101 0.000000 
0.657013 -0.479112 0.263862 89 74 22 -0.256722 0.905129 0.338873 0.000000 
0.620498 -0.457577 0.151228 53 47 24 -0.334669 -0.932974 0.132501 0.000000 
0.569194 -0.462807 0.106320 64 58 35 -0.549994 0.827179 0.115251 0.000000 
0.853917 -0.544438 0.546926 125 111 94 -0.527445 0.218622 0.820979 0.000000 
0.864215 -0.541098 0.486907 84 76 40 -0.193641 -0.980087 -0.043955 0.000000 
0.898957 -0.556390 0.560678 96 80 33 -0.345198 -0.938066 0.029515 0.000000 
0.794063 -0.513357 0.440298 94 83 44 0.070539 -0.971461 -0.226468 0.000000 
0.871853 -0.534094 0.494694 71 64 37 0.750756 0.641995 -0.155589 0.000000 
0.667756 -0.481180 0.277017 85 71 19 -0.229022 0.954928 0.188843 0.000000 
0.912669 -0.558315 0.562322 118 106 69 0.023873 -0.734433 0.678262 0.000000 
0.827613 -0.512873 0.398491 92 90 79 0.734438 -0.149301 -0.662050 0.000000 
0.690087 -0.477502 0.233334 51 49 31 -0.392106 -0.907365 0.151463 0.000000 
0.841872 -0.518719 0.466474 93 91 69 -0.003332 -0.989676 -0.143286 0.000000 
0.750250 -0.511153 0.427810 105 97 67 -0.832700 0.264178 0.486643 0.000000 
0.599071 -0.445924 0.125022 61 64 47 -0.644789 -0.680701 0.347696 0.000000 
0.603308 -0.441036 0.144517 65 69 53 -0.540586 -0.782973 0.307767 0.000000 
0.715366 -0.480645 0.254329 66 68 42 0.553823 -0.644724 -0.526889 0.000000 
0.628785 -0.465278 0.196249 59 50 13 0.111138 -0.975267 -0.191057 0.000000 
0.706048 -0.487832 0.345715 102 96 59 0.052717 -0.947621 -0.315016 0.000000 
0.785358 -0.519792 0.473151 134 120 100 0.588486 -0.477831 -0.652197 0.000000 
0.675017 -0.489407 0.319329 137 124 88 0.816721 -0.236216 -0.526468 0.000000 
0.802934 -0.515427 0.415929 86 75 30 0.015880 0.961357 0.274848 0.000000 
0.708488 -0.483255 0.330106 93 92 63 -0.123679 0.915784 0.382156 0.000000 
0.511864 -0.421719 -0.031828 106 98 68 -0.216791 -0.935699 -0.278332 0.000000 
0.628637 -0.476478 0.238250 87 77 50 0.862179 -0.201723 -0.464710 0.000000 
0.497169 -0.435099 -0.052039 68 63 48 0.391125 0.887840 -0.242408 0.000000 
0.737119 -0.479280 0.303731 82 73 41 -0.010944 -0.999916 0.006965 0.000000 
0.723221 -0.482811 0.314846 73 61 18 -0.185171 0.934208 0.304905 0.000000 
0.489624 -0.418552 -0.021032 44 37 24 0.604505 0.790955 0.094681 0.000000 
0.805919 -0.510978 0.393564 65 62 31 0.357286 0.932109 0.059328 0.000000 
0.679017 -0.475670 0.215230 76 73 55 0.690281 -0.466316 -0.553228 0.000000 
0.628461 -0.474777 0.237835 105 101 78 0.824556 -0.228787 -0.517459 0.000000 
0.639786 -0.461064 0.155933 50 54 33 -0.774674 -0.488841 0.401142 0.000000 
0.567697 -0.433827 0.074845 111 103 71 0.080295 -0.974663 -0.208768 0.000000 
0.651796 -0.484151 0.270938 98 83 35 0.623668 -0.751201 -0.216184 0.000000 
0.762643 -0.486823 0.368922 90 95 83 -0.116409 0.899016 0.422159 0.000000 
0.652984 -0.451760 0.201013 81 82 68 0.408715 0.690016 0.597352 0.000000 
0.583429 -0.460864 0.150440 71 64 43 0.901151 -0.058270 -0.429571 0.000000 
0.863872 -0.546223 0.552207 104 97 68 0.188972 0.919284 0.345264 0.000000 
0.721256 -0.488838 0.324225 80 69 29 -0.068921 0.945382 0.318595 0.000000 
0.911164 -0.560203 0.555229 101 86 58 0.380472 0.917284 -0.117601 0.000000 
0.672458 -0.477918 0.297213 121 112 68 0.364630 -0.828704 -0.424612 0.000000 
0.716615 -0.466914 0.267298 96 87 58 -0.283219 -0.959055 0.001216 0.000000 
0.561244 -0.450784 0.038285 51 54 37 -0.577244 0.563702 0.590787 0.000000 
0.503009 -0.431632 0.012386 48 43 27 0.837236 0.372280 -0.400554 0.000000 
0.758309 -0.507830 0.390220 89 78 25 -0.007457 -0.996055 -0.088420 0.000000 
0.650928 -0.472073 0.184170 53 49 34 0.042646 -0.939503 -0.339875 0.000000 
0.882114 -0.545582 0.552336 132 116 88 -0.380451 0.781948 0.493776 0.000000 
0.641172 -0.467400 0.179516 54 47 23 0.339132 0.877485 -0.339132 0.000000 
0.622127 -0.450315 0.147105 55 59 44 0.444917 0.854669 -0.267562 0.000000 
0.766617 -0.480047 0.340050 84 88 73 0.661194 -0.199752 0.723133 0.000000 
0.676189 -0.471122 0.281197 88 88 60 0.214126 -0.947881 -0.235947 0.000000 
0.528468 -0.431779 -0.013326 66 65 45 0.957829 0.130076 -0.256209 0.000000 
0.782157 -0.495244 0.377430 103 98 67 0.025776 -0.963531 -0.266352 0.000000 
0.660560 -0.488383 0.296727 122 111 80 0.484388 0.771432 -0.412627 0.000000 
0.643680 -0.480853 0.252243 100 89 44 0.489472 -0.783479 -0.382855 0.000000 
0.655489 -0.462536 0.237439 96 93 62 0.224973 -0.963614 -0.144347 0.000000 
0.552854 -0.438721 0.020476 89 86 68 -0.848007 -0.135740 0.512307 0.000000 
0.627167 -0.448894 0.161059 60 60 38 -0.378796 -0.899458 0.217918 0.000000 
0.518238 -0.431530 0.031559 74 72 51 0.584399 -0.779716 -0.224769 0.000000 
0.493687 -0.422457 -0.005392 51 49 34 0.879286 0.381577 -0.285052 0.000000 
0.566972 -0.464150 0.118943 98 90 62 0.788365 0.571526 -0.227681 0.000000 
0.527958 -0.448762 0.046779 60 61 39 -0.328828 -0.924386 -0.193345 0.000000 
0.773288 -0.515229 0.415082 95 74 35 -0.130753 -0.906834 -0.400694 0.000000 
0.678025 -0.472414 0.250771 63 54 17 -0.102010 0.991449 0.081379 0.000000 
0.524660 -0.437553 -0.018371 52 57 42 0.653539 -0.633584 -0.414075 0.000000 
0.591374 -0.449191 0.103935 67 63 37 -0.526321 -0.845823 0.087007 0.000000 
0.768291 -0.493835 0.373711 102 96 63 0.031014 0.883232 0.467910 0.000000 
0.854298 -0.529093 0.447017 78 70 51 0.549194 -0.778423 -0.304046 0.000000 
0.498222 -0.417063 -0.008494 72 69 47 0.549962 0.822719 0.143791 0.000000 
0.654560 -0.467997 0.219324 65 54 20 -0.082242 -0.996516 0.013885 0.000000 
0.865951 -0.541950 0.508035 77 66 25 -0.178964 -0.981300 -0.070865 0.000000 
0.737359 -0.477970 0.319363 104 98 63 0.172579 0.947148 0.270420 0.000000 
0.592749 -0.457697 0.083723 54 59 41 0.640508 -0.600161 -0.479120 0.000000 
0.788182 -0.487964 0.346858 68 66 47 -0.718076 -0.668660 0.193031 0.000000 
0.849689 -0.525294 0.437162 69 62 37 0.377260 -0.621079 -0.686976 0.000000 
0.787622 -0.489365 0.360933 74 70 45 -0.230497 -0.937353 -0.261230 0.000000 
0.485055 -0.412701 -0.033760 63 53 30 -0.638952 -0.706549 -0.304186 0.000000 
0.770238 -0.481642 0.324746 100 91 63 -0.362999 -0.931395 -0.027128 0.000000 
0.708189 -0.480373 0.297534 77 67 24 -0.083213 0.988004 -0.130093 0.000000 
0.508197 -0.443962 -0.013721 56 57 53 0.717766 0.665057 -0.206183 0.000000 
0.570054 -0.458856 0.101337 39 32 10 -0.653547 0.626939 0.424057 0.000000 
0.888562 -0.545113 0.521066 79 72 44 -0.915576 -0.400317 0.038314 0.000000 
0.496234 -0.437524 -0.065953 66 58 44 0.561390 -0.746893 -0.356361 0.000000 
0.921869 -0.563281 0.578580 86 78 52 0.928308 0.368960 -0.045956 0.000000 
0.649503 -0.451082 0.181353 83 83 71 -0.486386 -0.746891 0.453411 0.000000 
0.518265 -0.443947 0.030957 49 47 36 0.314362 0.901762 0.296652 0.000000 
0.804220 -0.500240 0.398159 105 100 73 0.102836 -0.956769 -0.272061 0.000000 
0.571776 -0.456202 0.094334 41 32 13 -0.017985 0.997614 0.066649 0.000000 
0.746725 -0.482481 0.311451 79 71 39 0.161779 0.961467 0.222282 0.000000 
0.772545 -0.498176 0.361203 65 55 30 0.031805 0.994717 0.097607 0.000000 
0.607719 -0.479459 0.188088 89 79 49 0.057890 -0.948116 -0.312608 0.000000 
0.729855 -0.473681 0.309762 94 90 58 0.034097 0.999136 0.023764 0.000000 
0.582353 -0.448489 0.151187 65 60 44 0.718794 -0.506310 -0.476429 0.000000 
0.702816 -0.476631 0.311320 99 94 58 0.145307 -0.953158 -0.265285 0.000000 
0.885495 -0.548205 0.514734 76 64 41 -0.156321 -0.972239 -0.174113 0.000000 
0.642534 -0.456400 0.166816 72 68 43 -0.595439 -0.605560 0.527967 0.000000 
0.841302 -0.526565 0.448652 81 73 37 -0.185743 -0.920210 -0.344547 0.000000 
0.668763 -0.471350 0.199043 53 55 31 0.752879 -0.393588 -0.527505 0.000000 
0.543130 -0.430816 0.010416 62 62 45 -0.651506 -0.757001 0.049896 0.000000 
0.644779 -0.474949 0.246166 92 77 26 0.423458 -0.599483 -0.679193 0.000000 
0.776143 -0.523444 0.464609 107 99 85 -0.523469 0.644658 0.557132 0.000000 
0.541782 -0.435280 0.043444 67 61 34 0.372731 0.915653 0.150499 0.000000 
0.761921 -0.495334 0.359616 75 65 32 -0.081641 0.996014 0.035922 0.000000 
0.675721 -0.462546 0.263439 120 114 103 0.358018 -0.845797 -0.395539 0.000000 
0.632591 -0.458265 0.143455 87 91 79 0.607761 0.693407 -0.387056 0.000000 
0.563376 -0.455219 0.064160 70 64 50 0.319593 0.942865 0.094154 0.000000 
0.572223 -0.465950 0.113687 63 61 33 0.136486 0.970711 0.197714 0.000000 
0.488680 -0.413838 -0.049455 48 41 27 -0.130789 0.406430 -0.904272 0.000000 
0.883302 -0.540640 0.512450 95 87 48 -0.562093 -0.825618 0.049060 0.000000 
0.670330 -0.482260 0.284335 90 75 21 -0.181686 0.936169 0.300961 0.000000 
0.616531 -0.456527 0.192333 96 95 65 0.263183 -0.911689 -0.315529 0.000000 
0.778182 -0.494812 0.353281 81 71 37 0.102747 -0.967848 -0.229594 0.000000 
0.639467 -0.486112 0.258264 113 103 68 0.549357 0.803145 -0.230575 0.000000 
0.833764 -0.512426 0.422364 84 75 44 0.429169 0.883239 -0.188952 0.000000 
0.780610 -0.486782 0.333896 93 83 56 -0.506939 -0.861931 0.009413 0.000000 
0.504571 -0.422024 -0.032570 92 81 48 -0.631126 -0.763048 -0.139417 0.000000 
0.870015 -0.531600 0.490741 65 63 36 0.638052 0.714810 -0.286244 0.000000 
0.709518 -0.465817 0.245545 75 77 60 -0.795164 -0.477098 0.374289 0.000000 
0.802682 -0.521215 0.470597 101 86 47 0.318660 0.552451 0.770229 0.000000 
0.729911 -0.482563 0.273260 62 64 43 -0.049252 0.956001 0.289200 0.000000 
0.853115 -0.533061 0.468700 82 71 34 -0.297675 -0.898950 -0.321371 0.000000 
0.792758 -0.495353 0.377125 81 77 48 0.331711 0.828490 0.451189 0.000000 
0.507345 -0.434737 -0.055664 52 53 38 -0.749197 0.414764 0.516405 0.000000 
0.544031 -0.434550 0.032395 91 83 56 0.084615 0.951588 0.295500 0.000000 
0.642532 -0.480609 0.263890 93 80 56 -0.845045 0.370195 0.385816 0.000000 
0.715632 -0.483812 0.332149 94 94 71 0.065199 -0.872559 -0.484138 0.000000 
0.750340 -0.498181 0.362671 81 70 34 -0.051370 0.928607 0.367491 0.000000 
0.835011 -0.516454 0.460280 85 86 67 0.251455 0.874822 0.414073 0.000000 
0.509014 -0.440550 -0.033467 52 55 43 -0.542776 0.505807 0.670488 0.000000 
0.851140 -0.545337 0.544227 119 103 82 -0.733298 -0.146057 0.664034 0.000000 
0.776596 -0.520351 0.459033 114 97 74 -0.355643 -0.933072 0.053806 0.000000 
0.518320 -0.432814 -0.041462 101 94 80 0.773215 -0.421606 -0.473696 0.000000 
0.504637 -0.430455 -0.004788 34 28 15 -0.689177 -0.710289 0.143264 0.000000 
0.751762 -0.494830 0.324033 86 88 70 0.447076 0.712996 -0.540148 0.000000 
0.805962 -0.524483 0.487643 154 130 82 -0.940741 -0.151118 -0.303596 0.000000 
0.750957 -0.474285 0.302049 55 58 40 -0.303065 -0.939366 0.160446 0.000000 
0.786860 -0.498597 0.388408 94 89 53 0.042712 0.938368 0.342990 0.000000 
0.679034 -0.461071 0.244815 101 95 63 0.029905 -0.993520 -0.109653 0.000000 
0.863398 -0.553596 0.554885 98 84 52 0.215271 0.956017 -0.199226 0.000000 
0.679876 -0.457455 0.224971 77 72 46 0.159645 0.978910 0.127469 0.000000 
0.564650 -0.443898 0.038832 55 60 41 0.817112 0.106326 -0.566589 0.000000 
0.791133 -0.491246 0.354431 64 57 32 -0.670158 -0.724865 0.159561 0.000000 
0.851181 -0.539953 0.514824 94 74 32 -0.131063 -0.990377 -0.044447 0.000000 
0.717838 -0.471140 0.256016 50 51 32 0.605912 0.419988 -0.675633 0.000000 
0.916713 -0.559757 0.562086 91 83 57 0.934012 0.161417 -0.318695 0.000000 
0.493074 -0.409344 -0.044120 73 71 48 -0.705277 -0.696293 0.133269 0.000000 
0.750050 -0.480893 0.352303 86 92 80 0.389087 -0.836459 0.385937 0.000000 
0.814826 -0.521320 0.470165 115 100 55 0.076680 -0.921509 -0.380711 0.000000 
0.596099 -0.445606 0.122506 61 63 47 0.573367 0.772387 -0.273257 0.000000 
0.599773 -0.457254 0.138829 50 43 15 0.005533 0.990372 -0.138320 0.000000 
0.583869 -0.455605 0.070628 55 58 37 0.618665 -0.628725 -0.471125 0.000000 
0.754062 -0.508026 0.403742 122 100 44 -0.434487 -0.670874 -0.600957 0.000000 
0.517030 -0.445519 -0.013998 57 56 43 -0.381144 0.917773 0.111454 0.000000 
0.772455 -0.491804 0.326949 70 66 44 0.080357 -0.960457 -0.266581 0.000000 
0.606821 -0.446185 0.158111 79 77 47 0.325928 -0.907628 -0.264542 0.000000 
0.506846 -0.426538 0.011902 75 71 48 0.031018 -0.886038 -0.462574 0.000000 
0.719675 -0.481196 0.337348 111 105 64 0.388870 -0.909249 -0.148478 0.000000 
0.581372 -0.457904 0.082242 61 61 39 -0.268586 -0.953942 -0.133631 0.000000 
0.488986 -0.433973 -0.059522 65 61 50 0.840419 0.517295 -0.161562 0.000000 
0.628147 -0.473367 0.234654 97 93 68 0.716470 -0.457144 -0.526963 0.000000 
0.774567 -0.488744 0.321015 53 54 30 -0.837544 -0.051735 0.543914 0.000000 
0.853883 -0.528951 0.451408 82 73 47 0.155921 -0.982662 -0.100321 0.000000 
0.791270 -0.524992 0.468274 113 89 50 -0.083151 -0.960711 -0.264803 0.000000 
0.825053 -0.522090 0.476051 87 80 49 -0.024500 0.929702 0.367497 0.000000 
0.911141 -0.554117 0.568730 81 75 47 -0.616661 -0.780714 0.101068 0.000000 
0.629326 -0.466872 0.158351 50 45 30 0.348898 0.910609 -0.221499 0.000000 
0.815460 -0.513267 0.438312 97 90 52 -0.002973 -0.999913 0.012883 0.000000 
0.763705 -0.479117 0.320116 106 98 66 -0.310285 -0.936372 -0.164106 0.000000 
0.729994 -0.503479 0.392083 148 126 81 0.174374 -0.930459 -0.322243 0.000000 
0.850260 -0.539588 0.512037 98 80 36 -0.201363 -0.977876 -0.056671 0.000000 
0.550392 -0.433674 0.034600 62 65 50 -0.090112 0.988893 0.118199 0.000000 
0.649298 -0.476240 0.251133 94 80 29 0.572058 -0.688805 -0.445305 0.000000 
0.564932 -0.453584 0.115114 85 82 61 0.795587 -0.106957 -0.596324 0.000000 
0.707897 -0.499014 0.367439 131 112 85 0.826299 0.140426 -0.545446 0.000000 
0.755767 -0.477098 0.301095 44 47 29 -0.465847 -0.840381 0.277032 0.000000 
0.614786 -0.457169 0.118362 56 58 39 0.590606 0.756167 -0.281772 0.000000 
0.705923 -0.468477 0.311030 87 94 81 -0.074727 0.855841 0.511813 0.000000 
0.509534 -0.440639 0.002477 58 52 35 0.878325 0.459939 -0.130388 0.000000 
0.864725 -0.536249 0.470241 88 83 59 0.421913 -0.819944 -0.386886 0.000000 
0.713839 -0.498102 0.371202 147 129 85 0.374261 -0.743620 -0.554038 0.000000 
0.776680 -0.513562 0.449279 104 90 55 -0.052210 -0.987357 0.149670 0.000000 
0.924625 -0.566747 0.591977 130 120 84 -0.830717 -0.533502 -0.159010 0.000000 
0.835855 -0.519750 0.478557 84 85 69 0.187089 0.897736 0.398833 0.000000 
0.884819 -0.553759 0.556196 113 90 36 0.055405 0.998341 -0.015681 0.000000 
0.834317 -0.505335 0.432915 137 128 110 0.532298 0.846530 0.006772 0.000000 
0.605461 -0.457091 0.150494 59 50 16 0.057491 0.998254 0.013589 0.000000 
0.651747 -0.476422 0.268246 115 108 67 0.693327 -0.580267 -0.427303 0.000000 
0.483141 -0.440751 -0.073419 79 76 60 -0.592907 -0.650015 0.475334 0.000000 
0.558875 -0.439126 0.100391 115 105 83 0.572992 -0.764521 -0.295274 0.000000 
0.768987 -0.482297 0.316552 47 48 25 0.732298 0.575726 -0.363702 0.000000 
0.678029 -0.472777 0.259554 72 61 16 -0.170859 0.969912 0.173428 0.000000 
0.620202 -0.460776 0.174234 58 48 16 0.190523 0.935926 0.296214 0.000000 
0.569015 -0.444635 0.120044 91 91 66 0.490000 -0.628075 -0.604501 0.000000 
0.646204 -0.487541 0.264537 94 88 59 -0.047046 0.952354 0.301346 0.000000 
0.532652 -0.449089 0.019055 113 113 109 0.460331 0.631071 -0.624376 0.000000 
0.782388 -0.499909 0.368304 81 75 31 0.017389 -0.884174 -0.466833 0.000000 
0.848222 -0.527671 0.496332 82 74 44 -0.124165 -0.974506 -0.186874 0.000000 
0.642884 -0.470922 0.168621 71 64 47 -0.145426 0.984327 0.099755 0.000000 
0.558851 -0.437028 0.045736 58 61 45 -0.266589 -0.902867 -0.337286 0.000000 
0.594564 -0.458162 0.120572 42 36 16 -0.157212 -0.887023 0.434136 0.000000 
0.906404 -0.557986 0.586780 109 100 71 0.032181 -0.993178 -0.112079 0.000000 
0.622961 -0.446272 0.157237 65 68 52 0.251283 0.900798 -0.354147 0.000000 
0.557861 -0.452827 0.057397 71 66 51 -0.057963 -0.998024 -0.024239 0.000000 
0.634808 -0.445412 0.177181 71 76 65 -0.302040 -0.951999 0.049703 0.000000 
0.907270 -0.556195 0.540954 82 80 58 -0.822642 -0.429549 0.372487 0.000000 
0.691551 -0.474016 0.299443 98 98 76 0.104028 -0.949418 -0.296282 0.000000 
0.662691 -0.489645 0.297824 110 101 60 0.128242 0.990755 -0.044261 0.000000 
0.736081 -0.469819 0.289156 58 61 45 -0.277169 -0.885442 0.373054 0.000000 
0.835883 -0.513959 0.457350 82 84 67 -0.240769 -0.959128 -0.148671 0.000000 
0.473112 -0.426794 -0.071123 100 91 68 0.219771 0.080707 -0.972207 0.000000 
0.756538 -0.504434 0.376868 91 78 27 -0.121869 -0.927022 -0.354651 0.000000 
0.594021 -0.461139 0.094874 61 59 49 -0.249043 0.932857 -0.260299 0.000000 
0.459990 -0.427259 -0.076183 94 86 62 -0.286146 -0.086750 0.954251 0.000000 
0.697477 -0.469314 0.233055 51 53 28 -0.734438 -0.149301 0.662050 0.000000 
0.520082 -0.445546 -0.012168 62 68 56 -0.551383 0.775133 0.308455 0.000000 
0.892709 -0.551379 0.527454 99 89 58 -0.009048 0.918974 0.394215 0.000000 
0.503167 -0.421207 -0.021922 76 66 36 -0.557522 -0.814611 -0.159933 0.000000 
0.547413 -0.435340 0.014976 68 66 46 0.819302 0.550678 -0.159682 0.000000 
0.503226 -0.421254 -0.015559 65 61 40 -0.566446 -0.803351 -0.183753 0.000000 
0.739424 -0.509339 0.401676 117 94 43 -0.171624 0.950011 0.260814 0.000000 
0.848726 -0.523861 0.474514 77 70 38 0.347286 0.912165 0.217594 0.000000 
0.874675 -0.550347 0.567647 152 136 111 -0.554918 0.548171 0.625759 0.000000 
0.661369 -0.481317 0.292250 114 107 70 -0.588123 0.635308 0.500495 0.000000 
0.483521 -0.437579 -0.071480 81 79 70 0.590736 0.489755 -0.641226 0.000000 
0.595740 -0.453058 0.087765 53 57 37 -0.757954 -0.546960 0.355443 0.000000 
0.589805 -0.460098 0.083737 61 68 53 0.234489 -0.895188 -0.379017 0.000000 
0.705616 -0.487203 0.313000 79 70 26 -0.006697 -0.869293 -0.494251 0.000000 
0.481673 -0.411230 -0.082324 45 48 33 -0.566643 -0.712021 0.414657 0.000000 
0.804220 -0.507374 0.382153 87 79 50 -0.074312 -0.978242 -0.193699 0.000000 
0.554956 -0.446771 0.028505 52 53 33 -0.509680 0.644249 0.570236 0.000000 
0.655076 -0.487530 0.280197 99 86 43 0.339930 -0.802746 -0.489946 0.000000 
0.500438 -0.428936 -0.017679 45 38 23 0.865876 0.433694 -0.249336 0.000000 
0.547799 -0.437414 0.082664 83 84 69 -0.706293 0.614948 0.350700 0.000000 
0.770900 -0.490020 0.316920 62 65 44 0.432299 -0.632592 -0.642607 0.000000 
0.741431 -0.480005 0.278208 57 60 34 -0.725420 0.261913 0.636528 0.000000 
0.550281 -0.457533 0.076049 66 62 45 -0.132548 -0.966440 -0.220055 0.000000 
0.914246 -0.561176 0.559363 102 95 69 0.072596 0.959035 0.273828 0.000000 
0.653818 -0.487362 0.277062 87 77 37 -0.735176 0.572166 0.363513 0.000000 
0.807537 -0.506643 0.377075 75 69 45 -0.130503 -0.981822 -0.137821 0.000000 
0.695054 -0.483744 0.302813 84 73 25 0.081580 -0.929474 -0.359753 0.000000 
0.816758 -0.535094 0.494149 110 93 51 0.112177 0.951526 0.286382 0.000000 
0.797442 -0.494563 0.379774 67 70 48 0.290636 0.923448 0.250548 0.000000 
0.661074 -0.489636 0.294763 100 86 57 0.213226 0.917300 -0.336296 0.000000 
0.521654 -0.429182 0.021956 66 60 36 0.030751 -0.997824 0.058321 0.000000 
0.667485 -0.466022 0.260400 81 82 58 0.205731 -0.910684 -0.358231 0.000000 
0.744226 -0.509806 0.422629 131 115 81 -0.455084 0.785466 0.419455 0.000000 
0.501324 -0.428485 0.012408 75 70 52 0.861722 -0.147266 -0.485539 0.000000 
0.843920 -0.544087 0.529399 122 101 48 0.067740 -0.928436 -0.365264 0.000000 
0.795395 -0.497892 0.382425 108 99 64 -0.287712 -0.881213 -0.375080 0.000000 
0.724988 -0.506109 0.377664 118 92 53 -0.179012 0.933913 0.309454 0.000000 
0.720296 -0.478772 0.288292 73 65 32 0.018033 0.970197 0.241647 0.000000 
0.557782 -0.457416 0.051662 64 73 61 0.580823 0.037788 -0.813152 0.000000 
0.825483 -0.518985 0.466433 86 79 44 0.018937 0.943077 0.332034 0.000000 
0.708496 -0.477330 0.245239 60 63 37 -0.405263 0.603760 0.686466 0.000000 
0.880739 -0.558020 0.577748 83 77 50 0.286465 0.941634 0.176813 0.000000 
0.899286 -0.556933 0.536527 89 80 47 0.254371 0.934569 0.248750 0.000000 
0.714227 -0.487486 0.319318 79 66 19 -0.196618 0.873692 0.444977 0.000000 
0.899430 -0.554132 0.522592 93 91 67 -0.212443 0.820734 0.530344 0.000000 
0.619540 -0.464096 0.118462 120 118 105 -0.552004 0.612775 0.565508 0.000000 
0.828885 -0.518919 0.427885 68 58 27 -0.330049 -0.939777 0.088808 0.000000 
0.768735 -0.481263 0.329392 106 96 66 0.268894 0.945907 0.181538 0.000000 
0.702882 -0.462960 0.265100 95 90 65 0.072913 -0.895595 -0.438855 0.000000 
0.836872 -0.542389 0.510510 96 80 52 -0.022553 -0.898144 -0.439122 0.000000 
0.638831 -0.470631 0.157408 64 68 46 -0.140687 0.935636 0.323716 0.000000 
0.524331 -0.431092 -0.029702 59 66 47 0.882122 -0.246278 -0.401507 0.000000 
0.734314 -0.479121 0.269713 106 100 85 0.783734 -0.178052 -0.595029 0.000000 
0.554816 -0.453776 0.053769 61 61 44 -0.051643 -0.978808 0.198163 0.000000 
0.685993 -0.481935 0.234501 84 84 57 -0.064460 0.892841 0.445735 0.000000 
0.773740 -0.485036 0.344393 115 104 68 -0.331666 -0.917464 -0.219675 0.000000 
0.882708 -0.555218 0.565358 100 78 49 0.167627 0.901177 0.399727 0.000000 
0.687700 -0.481171 0.296345 92 75 22 -0.021175 0.952859 0.302673 0.000000 
0.886669 -0.538438 0.529843 68 64 36 0.678759 0.720899 -0.139966 0.000000 
0.813481 -0.500262 0.395846 64 66 42 -0.003189 0.996095 0.088235 0.000000 
0.646609 -0.454988 0.173882 54 56 38 -0.633647 -0.610117 0.475656 0.000000 
0.874099 -0.554133 0.569229 162 150 127 -0.467703 -0.714038 0.520965 0.000000 
0.744866 -0.490623 0.333661 69 59 28 0.015891 -0.962000 -0.272587 0.000000 
0.774990 -0.487714 0.321546 47 49 27 0.930832 0.321408 -0.173922 0.000000 
0.767575 -0.496116 0.360985 83 73 35 -0.314250 -0.934445 -0.167508 0.000000 
0.721945 -0.496695 0.373432 101 92 56 0.033556 0.892577 0.449644 0.000000 
0.693862 -0.465266 0.274221 88 87 57 -0.134298 0.940089 0.313363 0.000000 
0.861727 -0.543787 0.521017 98 79 32 0.024727 0.996609 0.078482 0.000000 
0.580041 -0.465956 0.144018 73 66 46 0.777910 0.294301 -0.555196 0.000000 
0.868130 -0.527831 0.499654 66 65 40 -0.274848 -0.961357 -0.015880 0.000000 
0.644877 -0.487186 0.265806 112 102 72 -0.394396 -0.890716 0.226002 0.000000 
0.801619 -0.517731 0.425229 78 65 17 -0.026780 0.939865 0.340494 0.000000 
0.682915 -0.475808 0.224900 66 62 38 0.022232 0.916739 -0.398867 0.000000 
0.750171 -0.509080 0.399327 113 93 39 -0.164881 -0.917412 -0.362173 0.000000 
0.642683 -0.462124 0.161366 57 58 39 -0.826257 -0.231475 0.513536 0.000000 
0.501945 -0.438696 -0.059757 51 55 41 -0.590685 0.776727 0.218600 0.000000 
0.828544 -0.532506 0.507855 134 113 65 0.057007 -0.987726 -0.145425 0.000000 
0.647454 -0.464846 0.167415 52 56 30 0.802232 0.122175 -0.584378 0.000000 
0.646294 -0.451803 0.176229 77 78 67 -0.605741 -0.722666 0.332914 0.000000 
0.731350 -0.463476 0.266021 116 114 110 -0.418946 -0.713698 0.561354 0.000000 
0.793299 -0.524964 0.471153 124 100 51 0.069206 0.992707 0.098703 0.000000 
0.483608 -0.421439 -0.087069 68 64 55 -0.783180 0.397265 0.478340 0.000000 
0.799080 -0.513402 0.407606 85 75 30 -0.064223 -0.895027 -0.441364 0.000000 
0.772051 -0.516889 0.441732 132 100 40 -0.709510 0.662314 0.240698 0.000000 
0.756847 -0.477290 0.302786 44 46 27 -0.582434 -0.803612 0.122385 0.000000 
0.485265 -0.420459 -0.049445 47 43 32 -0.941324 0.024137 0.336641 0.000000 
0.811259 -0.501347 0.397941 114 105 68 0.034204 -0.994133 -0.102613 0.000000 
0.673447 -0.464608 0.202359 57 59 36 -0.767955 0.091805 0.633891 0.000000 
0.534851 -0.434560 0.037659 66 60 36 0.222695 -0.934197 0.278718 0.000000 
0.756819 -0.499130 0.361492 71 60 32 0.250108 -0.762908 -0.596169 0.000000 
0.747815 -0.514077 0.428799 148 138 113 0.820079 0.235407 -0.521588 0.000000 
0.525601 -0.434541 -0.027319 76 80 66 -0.740397 0.543395 0.395644 0.000000 
0.781224 -0.498134 0.366158 90 77 33 0.006342 0.932343 0.361521 0.000000 
0.774038 -0.482548 0.342633 74 76 58 0.242608 0.898387 0.366118 0.000000 
0.673700 -0.473829 0.218181 54 49 25 0.566081 0.714616 -0.410945 0.000000 
0.581048 -0.455829 0.067509 49 54 36 0.345772 -0.875854 -0.336633 0.000000 
0.584053 -0.441447 0.096083 61 63 46 0.736263 0.646738 -0.199115 0.000000 
0.514124 -0.422555 -0.036200 63 67 46 0.426313 0.902702 -0.058195 0.000000 
0.803520 -0.521351 0.438260 81 70 27 0.081965 -0.977469 -0.194515 0.000000 
0.736679 -0.497983 0.376743 138 116 65 -0.125200 0.925931 0.356339 0.000000 
0.828437 -0.509527 0.420123 103 94 58 -0.647854 -0.754108 0.107730 0.000000 
0.790513 -0.496255 0.343073 57 58 36 -0.832311 0.054739 0.551599 0.000000 
0.805532 -0.517802 0.459448 109 97 51 0.067184 0.936627 0.343825 0.000000 
0.684656 -0.479902 0.221972 72 76 63 0.384854 -0.635917 -0.668952 0.000000 
0.796641 -0.527047 0.481832 126 105 57 0.414465 0.888976 -0.194784 0.000000 
0.871150 -0.543060 0.513780 81 65 26 0.344907 0.931113 -0.118604 0.000000 
0.642874 -0.456708 0.165949 52 54 37 -0.608818 -0.635653 0.474643 0.000000 
0.853185 -0.525243 0.437746 66 66 47 0.774524 -0.626303 -0.088642 0.000000 
0.594288 -0.476248 0.163591 82 78 44 0.236419 0.947044 0.217287 0.000000 
0.648656 -0.480287 0.274761 95 82 59 -0.731508 0.595263 0.332504 0.000000 
0.705840 -0.461420 0.262659 109 101 68 -0.367526 -0.895936 -0.249445 0.000000 
0.683361 -0.480423 0.324353 130 118 97 0.266032 -0.954276 -0.136325 0.000000 
0.575602 -0.447744 0.055758 73 75 57 0.921522 0.274588 -0.274588 0.000000 
0.505840 -0.423318 -0.030457 79 69 39 0.652239 0.749853 0.110925 0.000000 
0.812151 -0.523934 0.451672 87 75 27 0.076205 0.885362 0.458615 0.000000 
0.743502 -0.506795 0.413416 154 131 84 0.318739 -0.906277 -0.277611 0.000000 
0.738669 -0.473340 0.304990 79 75 46 -0.254196 -0.965943 -0.048359 0.000000 
0.734341 -0.479831 0.297516 74 66 33 0.084057 0.994113 -0.068366 0.000000 
0.749446 -0.506825 0.392769 117 96 44 -0.215535 -0.966682 0.138097 0.000000 
0.847794 -0.517173 0.446093 67 68 47 -0.495115 -0.867486 0.048270 0.000000 
0.735978 -0.483858 0.315031 71 65 28 0.093520 0.827295 0.553928 0.000000 
0.802213 -0.517639 0.476206 93 95 78 -0.051439 0.998331 0.026244 0.000000 
0.634835 -0.450082 0.177162 58 57 32 0.478583 0.853647 -0.205535 0.000000 
0.783382 -0.515449 0.417968 93 76 35 0.014474 -0.901326 -0.432900 0.000000 
0.878247 -0.540750 0.489414 83 81 55 -0.689288 -0.666898 0.283072 0.000000 
0.866884 -0.530442 0.502451 89 82 49 -0.141253 -0.965445 -0.219007 0.000000 
0.681327 -0.473262 0.264526 82 68 21 0.135155 -0.894865 -0.425381 0.000000 
0.500513 -0.420057 -0.002215 93 88 73 0.339665 0.912037 0.229816 0.000000 
0.564429 -0.439268 0.065984 75 70 43 0.113152 0.981869 0.152086 0.000000 
0.906262 -0.554276 0.541843 79 76 53 0.678973 0.712692 -0.176257 0.000000 
0.864459 -0.540176 0.539129 144 118 64 0.422152 -0.904998 0.052600 0.000000 
0.511992 -0.445298 -0.030027 86 80 67 -0.463128 0.667106 0.583508 0.000000 
0.668963 -0.473955 0.278843 108 101 60 0.292558 -0.874641 -0.386540 0.000000 
0.775462 -0.493170 0.331969 66 63 38 -0.034204 0.994133 0.102613 0.000000 
0.862091 -0.541065 0.542202 128 108 58 0.052960 -0.969286 -0.240166 0.000000 
0.542242 -0.431506 0.030286 67 69 50 0.238890 0.971011 0.008320 0.000000 
0.618037 -0.480196 0.217969 101 91 62 0.897482 0.369898 -0.240213 0.000000 
0.866149 -0.542883 0.496035 71 63 39 -0.333515 -0.935732 0.114772 0.000000 
0.746137 -0.482986 0.313555 81 73 38 0.157025 0.951546 0.264393 0.000000 
0.484643 -0.418093 -0.052665 71 61 35 0.952638 -0.031378 -0.302484 0.000000 
0.735330 -0.509304 0.400321 118 93 58 -0.423932 -0.887198 -0.182101 0.000000 
0.827897 -0.531164 0.475236 85 70 22 -0.156670 -0.959767 -0.233030 0.000000 
0.780249 -0.514791 0.467455 142 132 114 -0.092210 0.863932 0.495094 0.000000 
0.742770 -0.506144 0.389722 117 93 44 -0.095942 0.986666 0.131476 0.000000 
0.578036 -0.467206 0.115432 68 75 60 -0.446826 0.815735 0.367319 0.000000 
0.509347 -0.427635 0.014399 90 83 56 -0.136838 -0.834268 -0.534108 0.000000 
0.597881 -0.446150 0.124731 61 63 46 -0.623239 -0.698486 0.351697 0.000000 
0.700110 -0.463113 0.267587 104 98 68 0.003375 -0.986600 -0.163121 0.000000 
0.894242 -0.552566 0.515421 83 85 69 0.819551 0.189360 -0.540813 0.000000 
0.893548 -0.547567 0.533121 75 70 44 0.706329 0.691204 -0.152761 0.000000 
0.700245 -0.474271 0.272254 74 62 23 0.060355 -0.846373 -0.529159 0.000000 
0.907664 -0.564166 0.585267 89 73 41 -0.271184 -0.938715 -0.212775 0.000000 
0.655277 -0.455314 0.206466 70 68 42 0.023109 -0.999708 0.007033 0.000000 
0.893943 -0.545716 0.547324 96 82 46 -0.517649 -0.855541 -0.009461 0.000000 
0.502185 -0.421506 0.001160 74 69 46 -0.048947 0.980133 0.192206 0.000000 
0.557115 -0.460585 0.089152 67 66 40 -0.318562 -0.936545 -0.146292 0.000000 
0.917929 -0.562465 0.564412 98 83 61 0.541826 -0.801028 -0.254518 0.000000 
0.549606 -0.456730 0.076691 65 62 47 0.191276 0.961655 0.196552 0.000000 
0.711790 -0.462744 0.270219 66 68 45 0.437945 0.888729 -0.135520 0.000000 
0.516848 -0.429666 -0.043974 54 58 36 0.914246 0.103110 -0.391820 0.000000 
0.878064 -0.536627 0.503825 67 65 43 -0.723554 -0.682292 0.104628 0.000000 
0.533838 -0.446619 0.013637 52 52 35 0.108294 -0.967003 -0.230603 0.000000 
0.586786 -0.458321 0.086284 61 58 44 -0.246526 -0.964390 -0.095800 0.000000 
0.878930 -0.536567 0.534926 105 93 50 -0.001323 0.882755 0.469832 0.000000 
0.823141 -0.519558 0.443167 81 68 29 -0.130850 -0.942927 -0.306215 0.000000 
0.748222 -0.484964 0.350315 92 89 54 -0.052888 -0.945534 -0.321198 0.000000 
0.738246 -0.503666 0.376180 119 93 34 -0.021797 -0.985437 -0.168637 0.000000 
0.728539 -0.476271 0.324075 89 87 56 0.126274 0.935517 0.329943 0.000000 
0.810433 -0.526396 0.459780 88 67 32 -0.093436 -0.995578 0.009666 0.000000 
0.598168 -0.466686 0.159186 73 59 17 0.812489 -0.341850 -0.472229 0.000000 
0.652858 -0.471389 0.234920 68 55 14 -0.007328 0.997655 0.068046 0.000000 
0.752312 -0.515287 0.426549 115 97 52 -0.309482 -0.870513 0.382660 0.000000 
0.672945 -0.460057 0.248221 83 86 66 0.116123 -0.985249 -0.125700 0.000000 
0.511229 -0.433401 -0.051280 86 81 69 0.726277 -0.634102 -0.265401 0.000000 
0.617580 -0.466753 0.191157 72 59 16 0.551699 -0.790612 -0.265633 0.000000 
0.869458 -0.542917 0.502747 72 62 24 0.365946 0.928735 0.059450 0.000000 
0.489165 -0.434757 -0.063763 59 54 39 -0.819004 -0.478147 0.317187 0.000000 
0.785395 -0.520135 0.434737 99 85 39 0.069330 0.992218 -0.103427 0.000000 
0.514359 -0.446301 -0.022503 55 60 47 0.701783 -0.650394 -0.290670 0.000000 
0.640464 -0.492454 0.257134 142 132 113 -0.450209 0.839663 0.303774 0.000000 
0.680398 -0.476896 0.223793 53 50 31 0.321353 0.808922 -0.492319 0.000000 
0.802663 -0.507523 0.382562 85 77 45 -0.153122 -0.968918 -0.194298 0.000000 
0.841046 -0.514013 0.422500 60 58 35 0.740662 0.606287 -0.289546 0.000000 
0.495448 -0.415155 -0.066581 52 55 36 -0.738949 -0.590189 0.325008 0.000000 
0.782938 -0.507618 0.396730 82 71 28 -0.177679 0.979070 0.099255 0.000000 
0.800148 -0.521915 0.446094 92 78 23 0.021837 -0.984985 -0.171252 0.000000 
0.666825 -0.474424 0.257671 78 66 27 0.311176 -0.894818 -0.320110 0.000000 
0.841649 -0.528887 0.502870 99 88 47 -0.064785 -0.959071 -0.275654 0.000000 
0.825200 -0.538927 0.519790 141 128 95 0.111153 -0.980837 0.160012 0.000000 
0.579091 -0.461691 0.117138 52 45 21 0.724708 -0.553023 -0.411053 0.000000 
0.532484 -0.438011 -0.003545 56 60 44 -0.511731 0.812197 0.280122 0.000000 
0.871024 -0.543076 0.490848 83 75 42 0.220790 0.970215 0.099671 0.000000 
0.802940 -0.520619 0.442939 91 75 23 -0.034923 -0.974241 -0.222787 0.000000 
0.636485 -0.483604 0.241365 98 94 64 -0.528412 0.791825 0.306257 0.000000 
0.512014 -0.426922 0.010220 75 69 44 0.240831 0.956670 0.163658 0.000000 
0.560953 -0.454200 0.042144 54 61 48 0.216536 -0.961943 -0.166667 0.000000 
0.561013 -0.459301 0.082282 48 44 28 0.206708 0.892802 0.400221 0.000000 
0.702646 -0.478596 0.254584 70 69 35 0.513525 0.835795 -0.194266 0.000000 
0.776590 -0.507294 0.386875 71 61 17 0.080899 -0.981653 -0.172665 0.000000 
0.793035 -0.497622 0.350102 67 61 42 0.378949 -0.822907 -0.423345 0.000000 
0.516106 -0.445389 -0.008660 73 67 53 0.142656 -0.986801 0.076633 0.000000 
0.675545 -0.474067 0.223573 45 41 23 -0.503685 -0.734885 0.454142 0.000000 
0.787657 -0.518549 0.483029 130 116 72 -0.520802 -0.847918 0.098995 0.000000 
0.613203 -0.439426 0.175195 117 107 86 0.204289 -0.957357 -0.204289 0.000000 
0.712232 -0.491864 0.335144 91 78 23 -0.193122 0.973185 0.124961 0.000000 
0.732300 -0.484858 0.318790 81 69 24 -0.096892 -0.817072 -0.568335 0.000000 
0.785989 -0.516971 0.423075 91 76 21 0.019605 -0.983699 -0.178750 0.000000 
0.728552 -0.470028 0.279223 63 60 36 0.462229 0.821915 -0.332868 0.000000 
0.839423 -0.535192 0.500647 99 82 39 -0.128765 -0.970200 -0.205259 0.000000 
0.862035 -0.528166 0.470254 68 66 38 0.607340 0.786749 0.110292 0.000000 
0.726467 -0.479554 0.283464 55 50 26 0.053622 0.963949 -0.260628 0.000000 
0.625586 -0.466236 0.139995 66 64 55 -0.038851 0.998569 0.036751 0.000000 
0.842174 -0.525018 0.430587 65 63 35 -0.224515 -0.974464 -0.003526 0.000000 
0.722282 -0.467895 0.264911 52 54 37 -0.644893 -0.651525 0.399535 0.000000 
0.805512 -0.507296 0.384290 86 78 47 0.054306 0.997747 -0.039399 0.000000 
0.678919 -0.458695 0.216691 87 82 56 -0.635555 -0.771844 0.018079 0.000000 
0.640481 -0.458821 0.218241 80 79 56 -0.287862 0.851270 0.438720 0.000000 
0.512380 -0.443682 -0.029689 66 61 48 0.482903 -0.617510 -0.620875 0.000000 
0.607592 -0.453340 0.123094 46 50 34 0.513969 0.770144 -0.377776 0.000000 
0.650616 -0.454955 0.204702 70 68 40 0.460443 0.887520 -0.017350 0.000000 
0.651426 -0.466113 0.245318 94 91 63 0.261661 -0.886657 -0.381278 0.000000 
0.587666 -0.466897 0.163097 101 94 66 0.818460 0.012339 -0.574430 0.000000 
0.834131 -0.528206 0.497790 102 92 53 -0.244564 0.946832 0.209041 0.000000 
0.586553 -0.458090 0.088886 62 59 42 0.291723 0.956407 -0.013540 0.000000 
0.802227 -0.508654 0.396575 83 73 29 0.109083 0.988781 0.102045 0.000000 
0.730934 -0.490879 0.334330 74 62 30 0.076022 -0.996853 -0.022485 0.000000 
0.884092 -0.541379 0.513133 80 72 39 0.560607 0.827824 -0.020661 0.000000 
0.500598 -0.422410 -0.067760 85 83 71 -0.879049 -0.186376 0.438791 0.000000 
0.456058 -0.428987 -0.086219 61 54 39 -0.192006 0.766490 0.612884 0.000000 
0.890847 -0.551589 0.522463 84 73 39 0.041534 0.997883 -0.050054 0.000000 
0.586371 -0.456928 0.077719 56 56 37 -0.217991 0.960482 0.173072 0.000000 
0.638823 -0.450145 0.201660 80 83 62 -0.030093 0.919808 0.391213 0.000000 
0.660206 -0.465720 0.186467 53 56 33 0.789904 -0.049635 -0.611218 0.000000 
0.719202 -0.504153 0.383664 116 99 76 -0.883088 -0.368580 0.290351 0.000000 
0.773695 -0.517353 0.444121 135 104 40 -0.051898 0.834579 0.548438 0.000000 
0.925697 -0.572079 0.588571 117 106 83 -0.647425 0.630782 0.427733 0.000000 
0.925468 -0.578241 0.598195 108 106 79 0.717276 -0.664375 0.210048 0.000000 
0.903494 -0.552297 0.532214 78 75 47 -0.743828 -0.649902 0.156037 0.000000 
0.787029 -0.489550 0.342771 46 47 26 -0.642878 -0.760031 0.095187 0.000000 
0.613654 -0.444621 0.140483 115 107 77 0.465418 0.754866 -0.462129 0.000000 
0.606459 -0.469195 0.196061 102 95 68 0.971565 -0.159587 -0.174907 0.000000 
0.613853 -0.452459 0.180978 95 92 60 0.505347 -0.815127 -0.283182 0.000000 
0.637073 -0.467721 0.176861 42 36 20 -0.268987 -0.867750 0.417918 0.000000 
0.792173 -0.505506 0.381348 86 76 36 0.339321 0.892399 0.297466 0.000000 
0.795077 -0.524499 0.483764 160 143 107 0.740607 0.627393 -0.240579 0.000000 
