ply
format ascii 1.0
comment Created by Open3D
obj_info Generated by CloudCompare!
element vertex 629
property float x
property float y
property float z
property uchar red
property uchar green
property uchar blue
property float nx
property float ny
property float nz
property float scalar_leaf5
end_header
0.184057 0.845019 -0.834369 96 88 70 0.957306 -0.160657 -0.240322 0.000000 
0.271258 0.934294 -0.588321 87 79 68 0.938545 -0.300939 -0.169021 0.000000 
0.213680 0.889859 -0.758585 101 97 87 0.731275 0.117182 -0.671942 0.000000 
0.427953 1.030599 -0.266716 108 98 82 0.675923 0.308118 -0.669471 0.000000 
0.193420 0.857029 -0.748983 107 99 86 -0.011695 -0.913481 0.406713 0.000000 
0.530147 1.082837 -0.118093 76 67 52 0.933243 0.045683 -0.356329 0.000000 
0.292766 0.921621 -0.558556 99 86 68 0.464696 -0.851688 -0.242251 0.000000 
0.399976 0.997856 -0.378929 75 66 51 -0.903984 0.063891 0.422766 0.000000 
0.185427 0.884272 -0.788249 77 69 50 0.173646 -0.958368 0.226668 0.000000 
0.319185 0.948457 -0.475532 112 110 106 0.429433 0.748628 -0.505118 0.000000 
0.469005 1.045754 -0.200005 85 74 50 -0.315892 -0.652843 0.688482 0.000000 
0.490871 1.073935 -0.161979 76 66 51 0.738925 -0.250510 -0.625487 0.000000 
0.430378 1.033393 -0.295950 69 66 48 0.064332 -0.977124 0.202708 0.000000 
0.226965 0.882361 -0.696405 82 72 54 -0.527454 0.848634 0.040147 0.000000 
0.174448 0.827628 -0.818924 112 105 92 -0.066103 -0.845273 0.530230 0.000000 
0.489116 1.070895 -0.192482 64 58 43 0.760355 0.334169 -0.556948 0.000000 
0.467077 1.033762 -0.251829 113 106 96 0.868013 -0.288321 -0.404259 0.000000 
0.368428 0.993596 -0.373389 97 90 73 0.751640 0.029504 -0.658914 0.000000 
0.282675 0.938813 -0.578122 77 68 50 0.100276 -0.976764 0.189411 0.000000 
0.404554 0.995389 -0.332606 74 68 57 -0.019111 0.936420 -0.350361 0.000000 
0.506225 1.060578 -0.154467 73 66 54 -0.199973 0.872476 -0.445866 0.000000 
0.264752 0.910251 -0.576571 106 97 83 -0.422782 -0.694689 0.581947 0.000000 
0.536235 1.103289 -0.116436 87 81 59 -0.298955 0.952841 -0.052158 0.000000 
0.509340 1.080825 -0.132709 99 86 68 0.740272 0.267893 -0.616629 0.000000 
0.484120 1.046021 -0.195719 78 69 55 -0.181425 0.909982 -0.372850 0.000000 
0.272724 0.910132 -0.572548 97 93 81 0.204742 -0.914895 0.347918 0.000000 
0.457932 1.061533 -0.223023 117 104 85 0.585262 -0.743267 -0.324071 0.000000 
0.157902 0.863809 -0.827210 80 69 52 0.517504 -0.806928 0.284706 0.000000 
0.362876 0.988756 -0.375971 115 109 102 -0.790865 -0.333921 0.512864 0.000000 
0.506145 1.059123 -0.159868 69 60 46 0.490131 -0.863838 0.116424 0.000000 
0.302572 0.948971 -0.526682 71 63 53 -0.891696 0.102188 0.440949 0.000000 
0.351189 0.980522 -0.414475 66 60 46 -0.234741 -0.826964 0.510907 0.000000 
0.396009 0.995372 -0.342387 95 81 62 -0.621255 -0.597685 0.506769 0.000000 
0.273234 0.909025 -0.603303 102 88 68 0.634678 -0.753395 -0.171987 0.000000 
0.198219 0.855396 -0.782967 91 83 66 -0.845943 0.481443 -0.229331 0.000000 
0.356196 0.978199 -0.461246 74 68 47 0.432405 0.768539 -0.471566 0.000000 
0.219725 0.882074 -0.709086 93 78 59 0.258754 -0.965771 0.018222 0.000000 
0.306211 0.943710 -0.500103 90 85 74 0.871766 0.200491 -0.447021 0.000000 
0.349882 0.982337 -0.447489 88 79 57 0.643115 -0.764671 -0.040990 0.000000 
0.250158 0.920937 -0.635262 80 72 62 0.468351 -0.875115 -0.121743 0.000000 
0.578928 1.126171 -0.055920 91 86 74 0.678474 0.531052 -0.507599 0.000000 
0.469646 1.054293 -0.231252 87 82 69 0.456722 0.867326 -0.197863 0.000000 
0.224005 0.881096 -0.674210 90 85 73 0.147746 -0.954360 0.259554 0.000000 
0.231017 0.908068 -0.678593 72 67 58 0.347300 -0.878109 0.329101 0.000000 
0.267180 0.905498 -0.609589 102 88 71 0.450880 -0.892505 -0.011900 0.000000 
0.301251 0.940693 -0.576044 87 79 58 0.887382 0.226660 -0.401470 0.000000 
0.236053 0.898083 -0.647380 39 31 12 -0.450120 0.881545 0.142370 0.000000 
0.537606 1.105039 -0.114682 76 69 51 0.441193 -0.817083 0.371112 0.000000 
0.479350 1.066121 -0.205949 55 46 22 0.644082 0.344054 -0.683216 0.000000 
0.357951 0.960626 -0.431756 82 75 62 0.133379 -0.944429 0.300439 0.000000 
0.213704 0.874588 -0.713866 104 92 77 0.803481 -0.571331 -0.167329 0.000000 
0.526671 1.079972 -0.111110 76 74 68 0.406609 0.622361 -0.668831 0.000000 
0.295419 0.923077 -0.535228 112 107 96 -0.134079 -0.901856 0.410704 0.000000 
0.183082 0.851274 -0.853343 109 109 94 0.865883 0.104134 -0.489288 0.000000 
0.411500 0.999802 -0.353896 78 66 49 -0.731056 0.657491 0.182381 0.000000 
0.456831 1.034798 -0.268519 79 71 55 -0.782664 -0.187656 0.593482 0.000000 
0.163616 0.827530 -0.833471 64 55 38 0.294485 0.505506 -0.811014 0.000000 
0.184092 0.838590 -0.810190 92 88 67 0.918734 -0.378788 -0.111570 0.000000 
0.396084 0.991737 -0.388370 104 95 83 0.834630 -0.184972 -0.518824 0.000000 
0.207206 0.875317 -0.696653 87 83 74 0.587302 0.772106 -0.242751 0.000000 
0.277892 0.930519 -0.605991 80 71 49 0.262985 -0.928266 0.262985 0.000000 
0.506823 1.062489 -0.167234 78 67 51 0.934389 -0.081078 -0.346907 0.000000 
0.377008 1.002648 -0.364224 83 71 56 -0.083094 0.960057 -0.267180 0.000000 
0.350484 0.982462 -0.444114 83 73 53 0.754702 -0.644981 -0.120100 0.000000 
0.256852 0.919756 -0.619141 79 70 59 0.876686 -0.206192 -0.434634 0.000000 
0.397458 1.015054 -0.369746 112 108 99 0.034083 -0.981344 0.189217 0.000000 
0.309106 0.941130 -0.552424 81 73 58 -0.811564 0.424190 0.401780 0.000000 
0.212837 0.890935 -0.720720 57 49 37 0.611179 -0.791345 -0.015245 0.000000 
0.213074 0.879460 -0.681047 105 98 89 0.252104 0.884603 -0.392328 0.000000 
0.544609 1.101276 -0.102310 56 48 30 -0.744734 0.667359 0.001382 0.000000 
0.181895 0.858716 -0.764095 79 69 53 0.964188 -0.173999 -0.200164 0.000000 
0.386327 1.000010 -0.346010 110 100 83 -0.572652 -0.407622 0.711276 0.000000 
0.314105 0.943420 -0.542448 82 74 57 -0.865761 0.466179 0.182032 0.000000 
0.514684 1.089864 -0.123118 66 60 50 0.856992 -0.351785 -0.376580 0.000000 
0.582927 1.122352 -0.046517 80 66 51 -0.636820 0.752329 0.168704 0.000000 
0.701949 1.207127 0.144348 127 118 109 0.743267 0.324071 -0.585262 0.000000 
0.283680 0.925127 -0.536488 128 123 111 0.794197 0.106770 -0.598207 0.000000 
0.326179 0.942437 -0.490301 99 89 67 -0.003525 0.973948 -0.226745 0.000000 
0.199689 0.872595 -0.715022 81 75 66 0.832484 0.307691 -0.460756 0.000000 
0.316237 0.946765 -0.548860 92 88 73 0.852284 -0.386555 -0.352402 0.000000 
0.496577 1.068201 -0.182810 59 48 25 -0.888292 -0.182326 0.421538 0.000000 
0.205131 0.872574 -0.770908 83 74 54 0.993325 0.073287 -0.089072 0.000000 
0.619172 1.158256 0.028537 70 65 57 0.533011 -0.835491 0.133620 0.000000 
0.181843 0.870139 -0.769540 51 42 28 -0.579575 -0.569436 0.582954 0.000000 
0.257852 0.908584 -0.659578 88 83 67 -0.938875 0.246194 0.240630 0.000000 
0.244790 0.893780 -0.626762 102 92 81 0.066439 -0.944482 0.321775 0.000000 
0.246511 0.916501 -0.652508 91 79 55 0.302123 -0.953230 -0.008632 0.000000 
0.630369 1.154783 0.036326 83 71 55 0.504598 -0.853599 -0.129421 0.000000 
0.326415 0.966644 -0.502073 74 68 51 -0.209778 0.930625 -0.299884 0.000000 
0.239699 0.891257 -0.702609 87 80 62 -0.914295 0.280539 0.292168 0.000000 
0.404072 0.997208 -0.327528 84 78 69 -0.132927 -0.842844 0.521483 0.000000 
0.673244 1.195509 0.105648 109 104 94 -0.254255 -0.746973 0.614318 0.000000 
0.300653 0.930843 -0.518961 110 104 90 0.211930 0.858241 -0.467448 0.000000 
0.634208 1.167897 0.037823 104 100 93 -0.090875 -0.820759 0.564001 0.000000 
0.235182 0.897871 -0.633404 86 79 59 -0.650327 0.716784 -0.251586 0.000000 
0.251405 0.893361 -0.666953 87 82 64 0.624493 -0.778830 0.058591 0.000000 
0.313224 0.957562 -0.526409 79 69 45 0.067524 -0.984429 0.162295 0.000000 
0.409721 1.025681 -0.295318 83 76 61 0.827933 -0.121197 -0.547575 0.000000 
0.617025 1.147740 0.037857 120 115 110 -0.101395 -0.901442 0.420858 0.000000 
0.247289 0.921001 -0.641115 97 87 64 0.413312 -0.908747 0.057891 0.000000 
0.645017 1.164677 0.060057 91 79 63 0.496833 -0.840209 -0.217269 0.000000 
0.202212 0.868945 -0.783813 87 79 60 -0.980956 -0.116343 0.155532 0.000000 
0.171064 0.843225 -0.860932 100 92 74 0.893777 0.075744 -0.442069 0.000000 
0.370874 0.972789 -0.425119 77 66 49 -0.864643 0.408601 0.292295 0.000000 
0.230182 0.888685 -0.650900 108 98 85 0.370174 0.917753 -0.143879 0.000000 
0.594983 1.133349 -0.031216 80 72 50 0.883327 0.094090 -0.459218 0.000000 
0.393425 0.988156 -0.372951 73 63 45 0.887564 -0.437330 -0.144821 0.000000 
0.430448 1.019277 -0.321272 82 74 61 -0.810990 -0.273455 0.517221 0.000000 
0.531612 1.097532 -0.130409 69 65 42 0.783705 0.145352 -0.603887 0.000000 
0.519093 1.088289 -0.143308 63 56 39 -0.891834 0.256718 0.372463 0.000000 
0.365107 0.986826 -0.406771 52 42 20 -0.678973 0.712692 0.176257 0.000000 
0.188604 0.851415 -0.822958 96 88 72 0.924629 -0.145994 -0.351776 0.000000 
0.651552 1.181286 0.086851 89 84 73 0.728025 -0.533225 -0.430872 0.000000 
0.391228 0.981947 -0.362654 76 74 64 0.191756 -0.885591 0.423034 0.000000 
0.247743 0.914695 -0.632337 92 84 61 0.841639 -0.093197 -0.531939 0.000000 
0.189635 0.865684 -0.739412 77 71 62 0.928378 0.221850 -0.298155 0.000000 
0.332726 0.955168 -0.509673 76 70 56 -0.747055 0.600511 0.285123 0.000000 
0.452981 1.034933 -0.275146 72 65 43 -0.620587 -0.620587 0.479315 0.000000 
0.500257 1.079318 -0.171440 54 46 22 -0.816178 0.072899 0.573183 0.000000 
0.570439 1.115589 -0.061753 54 45 29 -0.518412 0.846594 -0.120527 0.000000 
0.187549 0.863190 -0.744766 78 72 64 0.926309 0.198797 -0.320049 0.000000 
0.412882 1.028214 -0.301162 55 46 28 -0.232582 -0.769551 0.594724 0.000000 
0.428859 1.009634 -0.325148 75 65 50 -0.787878 0.474021 0.393130 0.000000 
0.340181 0.958941 -0.446018 96 84 66 0.406409 0.801573 -0.438536 0.000000 
0.368342 0.965667 -0.424693 97 86 71 0.647807 -0.734388 -0.202536 0.000000 
0.282171 0.913484 -0.560001 115 107 94 0.190792 -0.956627 0.220144 0.000000 
0.303012 0.942049 -0.504981 100 89 73 0.777398 -0.404117 -0.482019 0.000000 
0.231824 0.896569 -0.646433 57 50 33 -0.399945 0.915489 0.043848 0.000000 
0.434820 1.014414 -0.311659 76 65 50 0.956718 -0.135920 -0.257324 0.000000 
0.278585 0.912786 -0.583803 100 86 69 -0.584161 0.808065 0.076070 0.000000 
0.352963 0.983035 -0.405335 121 110 94 -0.615975 -0.568722 0.545096 0.000000 
0.430260 1.015198 -0.283359 82 70 55 -0.061727 -0.936419 0.345411 0.000000 
0.656501 1.185446 0.085660 79 72 49 -0.221764 0.974563 -0.032366 0.000000 
0.257391 0.926830 -0.627378 88 82 65 -0.304747 0.933723 -0.187858 0.000000 
0.525386 1.085558 -0.129733 70 58 42 -0.935026 0.001262 0.354578 0.000000 
0.479931 1.062181 -0.176340 88 77 57 -0.898397 -0.122701 0.421696 0.000000 
0.183331 0.861050 -0.757512 72 65 55 0.905337 -0.103982 -0.411769 0.000000 
0.223369 0.890091 -0.655529 97 91 79 0.808021 -0.283984 -0.516192 0.000000 
0.257488 0.905229 -0.657001 86 78 60 -0.905160 0.271401 0.327149 0.000000 
0.428641 1.028633 -0.304629 71 61 38 0.185971 -0.966267 0.178168 0.000000 
0.466066 1.036370 -0.250084 77 67 50 -0.918783 -0.040982 0.392631 0.000000 
0.357590 0.976984 -0.461934 82 75 55 0.609786 0.636664 -0.472038 0.000000 
0.528095 1.097046 -0.135779 94 89 75 0.737539 0.324388 -0.592291 0.000000 
0.448252 1.053349 -0.241046 92 83 67 0.794477 -0.607217 0.009638 0.000000 
0.390997 0.992726 -0.397412 72 64 44 0.809445 0.121931 -0.574397 0.000000 
0.539976 1.107939 -0.100010 70 66 55 -0.233014 0.968582 -0.086908 0.000000 
0.420424 1.020845 -0.328591 75 67 46 -0.156631 -0.912973 0.376760 0.000000 
0.417963 1.003340 -0.328333 72 60 43 0.177765 -0.980732 -0.081022 0.000000 
0.385944 0.981324 -0.383722 77 67 51 0.835619 -0.495239 -0.237653 0.000000 
0.298187 0.941960 -0.578615 82 74 54 -0.034009 -0.871978 0.488362 0.000000 
0.589919 1.127606 -0.022726 61 50 34 0.688853 -0.724889 -0.004158 0.000000 
0.270966 0.921048 -0.559998 121 115 99 -0.885650 0.166693 0.433403 0.000000 
0.403325 0.991336 -0.349764 92 78 58 -0.533569 0.845162 -0.031711 0.000000 
0.636007 1.158974 0.058003 82 73 60 0.360475 -0.832714 0.420292 0.000000 
0.569425 1.117798 -0.056502 52 42 23 -0.605741 0.722666 -0.332914 0.000000 
0.475726 1.068366 -0.191518 84 74 51 0.863649 -0.282788 -0.417303 0.000000 
0.233654 0.908914 -0.680917 74 67 47 0.125138 -0.901274 0.414783 0.000000 
0.431824 1.039924 -0.262501 78 70 54 -0.807846 0.479609 0.342578 0.000000 
0.389910 1.004017 -0.384819 66 66 60 0.104647 -0.947118 0.303343 0.000000 
0.480379 1.076213 -0.189299 96 88 62 0.630822 -0.775646 0.020888 0.000000 
0.352174 0.965226 -0.465825 81 72 55 0.939169 -0.280783 -0.197793 0.000000 
0.528575 1.083371 -0.107103 107 95 77 -0.702620 -0.443498 0.556448 0.000000 
0.622925 1.159417 0.045080 78 73 63 0.819893 -0.347305 -0.455143 0.000000 
0.275289 0.931189 -0.580145 74 68 60 -0.928193 -0.048576 0.368914 0.000000 
0.377544 0.998487 -0.401138 64 61 52 0.212418 -0.971594 0.104324 0.000000 
0.383385 0.982832 -0.373579 101 90 74 -0.084249 -0.899114 0.429531 0.000000 
0.161140 0.853594 -0.822728 48 35 20 0.589149 0.646218 -0.485083 0.000000 
0.521069 1.098978 -0.122212 88 78 62 -0.356922 0.918405 -0.170702 0.000000 
0.681053 1.189154 0.120221 125 115 103 0.308834 -0.514723 0.799801 0.000000 
0.444083 1.018471 -0.273424 71 61 46 0.347408 -0.916415 0.198723 0.000000 
0.593962 1.128932 -0.027154 68 58 45 -0.393839 0.911536 0.118291 0.000000 
0.453969 1.040077 -0.262343 62 55 34 -0.010740 -0.970157 0.242241 0.000000 
0.374969 0.982397 -0.426228 73 67 53 0.860717 -0.501731 -0.086213 0.000000 
0.179253 0.835095 -0.837257 97 87 65 0.863882 -0.447771 -0.230670 0.000000 
0.270159 0.926998 -0.587354 86 74 54 0.860399 -0.128698 -0.493103 0.000000 
0.224941 0.899683 -0.714951 73 66 52 -0.209693 0.961421 -0.178041 0.000000 
0.565742 1.119108 -0.075270 70 68 48 0.184047 0.789426 -0.585605 0.000000 
0.624377 1.148309 0.025935 113 99 77 -0.525041 0.850263 0.037208 0.000000 
0.175376 0.873228 -0.830247 71 66 45 0.287045 0.781840 -0.553473 0.000000 
0.604411 1.138722 -0.011778 83 74 58 -0.816462 0.450407 0.361280 0.000000 
0.340973 0.951559 -0.488191 85 75 59 0.863587 -0.128743 -0.487486 0.000000 
0.560305 1.123196 -0.061540 67 63 52 0.552372 -0.830689 -0.069579 0.000000 
0.193091 0.864433 -0.830052 116 114 106 0.955416 0.046698 -0.291547 0.000000 
0.247709 0.894718 -0.662418 85 75 57 -0.466775 0.874665 -0.130697 0.000000 
0.205484 0.873824 -0.774266 87 79 58 -0.890875 -0.222351 0.396108 0.000000 
0.212131 0.894341 -0.707184 76 68 55 0.381136 -0.911044 0.157272 0.000000 
0.167590 0.829352 -0.826578 72 69 59 0.733763 0.472059 -0.488623 0.000000 
0.411840 0.999233 -0.351408 75 63 46 0.573393 -0.789767 -0.217920 0.000000 
0.183954 0.838889 -0.807547 93 85 66 -0.928777 0.362156 0.078846 0.000000 
0.569595 1.114490 -0.070102 92 82 66 -0.653470 0.748304 0.114098 0.000000 
0.301223 0.929861 -0.559130 78 67 51 -0.862513 0.425913 0.273256 0.000000 
0.212045 0.873545 -0.728804 73 60 40 0.785606 -0.618159 -0.026512 0.000000 
0.600732 1.132531 0.005391 106 97 80 -0.441338 0.869212 0.222913 0.000000 
0.191503 0.849249 -0.791415 105 94 75 0.698761 -0.707624 -0.104888 0.000000 
0.381199 0.976322 -0.384094 82 75 63 0.213053 -0.844659 0.491081 0.000000 
0.208346 0.891649 -0.737839 65 55 42 0.855158 -0.380243 -0.352307 0.000000 
0.516231 1.068797 -0.137044 97 85 68 0.179098 -0.959170 0.218898 0.000000 
0.212084 0.869426 -0.731597 81 75 57 -0.598153 0.782899 -0.171117 0.000000 
0.380383 1.000747 -0.390880 63 58 50 0.445899 -0.893161 0.058635 0.000000 
0.560040 1.102045 -0.064965 75 67 55 0.753083 -0.618994 -0.222963 0.000000 
0.505847 1.067418 -0.143068 97 94 86 0.524182 0.578117 -0.625311 0.000000 
0.345679 0.952776 -0.461602 102 90 74 -0.040855 0.964414 -0.261221 0.000000 
0.508919 1.087235 -0.159646 73 67 44 0.945127 0.321938 0.055596 0.000000 
0.602141 1.139060 -0.016777 84 76 63 -0.898250 -0.199449 0.391620 0.000000 
0.284220 0.940253 -0.571479 77 68 46 -0.001156 -0.979315 0.202338 0.000000 
0.667431 1.190519 0.107830 95 88 75 -0.607663 0.325707 0.724334 0.000000 
0.587187 1.130366 -0.041588 102 97 89 0.725515 0.152979 -0.670988 0.000000 
0.629635 1.166034 0.039450 75 65 40 -0.005295 0.996481 -0.083658 0.000000 
0.251118 0.902621 -0.600354 98 94 89 0.323105 0.651081 -0.686801 0.000000 
0.511822 1.065030 -0.154151 76 72 53 0.857049 -0.354908 -0.373506 0.000000 
0.677559 1.187955 0.116057 91 85 74 0.230898 -0.683271 0.692695 0.000000 
0.465536 1.030167 -0.243641 86 74 57 0.454093 -0.867987 0.200992 0.000000 
0.428530 1.007244 -0.315524 90 73 55 0.399019 -0.916021 0.041095 0.000000 
0.629775 1.162930 0.054645 97 85 68 0.711987 -0.681495 -0.169230 0.000000 
0.650687 1.169366 0.061295 92 81 66 0.851857 -0.496300 -0.167409 0.000000 
0.378689 0.972881 -0.403805 77 67 52 0.638298 -0.763912 -0.094941 0.000000 
0.309599 0.935239 -0.511501 113 101 85 -0.020194 0.873725 -0.486001 0.000000 
0.346514 0.975204 -0.427633 58 49 26 -0.237112 0.957722 -0.162932 0.000000 
0.457900 1.031000 -0.232277 101 100 95 -0.335592 -0.858312 0.388173 0.000000 
0.432235 1.030910 -0.286368 57 47 28 0.065574 -0.990509 -0.120794 0.000000 
0.437585 1.028916 -0.255482 70 65 57 -0.597312 -0.583775 0.549933 0.000000 
0.181008 0.841079 -0.793674 95 90 79 -0.105744 0.832914 -0.543205 0.000000 
0.372790 0.994479 -0.368500 80 75 67 0.848812 0.262472 -0.458942 0.000000 
0.202872 0.865476 -0.780524 88 79 60 0.935294 -0.324546 -0.141047 0.000000 
0.561994 1.114586 -0.082068 86 81 69 -0.457359 -0.386749 0.800780 0.000000 
0.560847 1.104226 -0.066722 69 61 47 -0.813427 0.351795 0.463224 0.000000 
0.279155 0.924408 -0.562743 32 26 12 -0.514884 0.855349 0.057209 0.000000 
0.180877 0.843144 -0.793481 95 88 77 -0.083148 0.866707 -0.491839 0.000000 
0.615530 1.154506 0.030071 86 76 54 -0.627874 0.765737 0.139361 0.000000 
0.252426 0.902645 -0.597421 114 109 99 0.456512 0.607011 -0.650488 0.000000 
0.315872 0.952741 -0.481755 62 63 57 0.623185 -0.778622 0.073401 0.000000 
0.229611 0.886783 -0.726598 84 79 56 -0.814220 0.361698 0.454115 0.000000 
0.229560 0.898097 -0.663972 52 42 31 0.956154 -0.266254 -0.121978 0.000000 
0.212896 0.875294 -0.702502 104 93 80 0.514742 -0.840000 0.171581 0.000000 
0.349248 0.954939 -0.467439 79 71 54 -0.748968 0.498764 0.436212 0.000000 
0.375574 0.996804 -0.363521 96 82 61 -0.861722 -0.147266 0.485539 0.000000 
0.216523 0.898399 -0.695802 94 81 57 0.494660 -0.868705 0.025749 0.000000 
0.262018 0.927709 -0.617438 81 73 61 -0.602471 0.784857 -0.145012 0.000000 
0.633659 1.162185 0.064942 111 108 101 0.253389 0.766464 -0.590193 0.000000 
0.324367 0.947821 -0.518301 81 71 55 -0.850656 0.452150 0.268225 0.000000 
0.329512 0.944320 -0.486312 99 84 64 -0.151725 -0.925661 0.346601 0.000000 
0.165087 0.868930 -0.842528 83 74 47 0.010740 -0.970157 0.242241 0.000000 
0.258936 0.898349 -0.646133 107 96 84 0.744251 -0.593150 -0.307024 0.000000 
0.221538 0.878190 -0.734301 81 76 57 0.702440 -0.664384 -0.255288 0.000000 
0.174389 0.825118 -0.842453 102 94 76 0.940442 -0.234763 -0.245876 0.000000 
0.329163 0.950884 -0.514234 75 71 53 0.779362 -0.583355 -0.228675 0.000000 
0.523940 1.091175 -0.134840 65 56 38 -0.857115 0.361135 0.367335 0.000000 
0.216372 0.894738 -0.709726 84 71 46 0.437081 -0.884328 0.164087 0.000000 
0.267143 0.903749 -0.601471 87 78 61 -0.425086 0.896775 0.122865 0.000000 
0.270742 0.920654 -0.566944 66 59 40 0.700615 -0.691416 -0.176303 0.000000 
0.229161 0.890519 -0.728327 84 81 55 -0.903886 0.125110 0.409068 0.000000 
0.359301 0.988187 -0.430214 92 83 59 -0.769543 0.632800 0.085828 0.000000 
0.459992 1.043637 -0.250058 66 57 35 0.134826 0.959487 -0.247399 0.000000 
0.215830 0.874260 -0.740278 85 79 58 -0.840361 0.529761 -0.114661 0.000000 
0.497476 1.061934 -0.160467 73 64 51 0.556835 0.594070 -0.580530 0.000000 
0.227409 0.901428 -0.694626 78 67 43 -0.091958 0.968711 -0.230526 0.000000 
0.706484 1.211340 0.166958 88 81 57 0.181430 -0.952844 -0.243251 0.000000 
0.567978 1.113380 -0.066697 83 68 50 0.373537 -0.916355 -0.144099 0.000000 
0.253070 0.902579 -0.670496 93 87 69 -0.955321 0.003679 0.295548 0.000000 
0.363827 0.970993 -0.447991 84 73 56 -0.853144 0.463831 0.238759 0.000000 
0.539735 1.089643 -0.089218 92 80 68 0.302689 0.874605 -0.378742 0.000000 
0.471327 1.038831 -0.216934 79 68 56 0.018285 0.964208 -0.264517 0.000000 
0.390722 1.002149 -0.387536 68 61 41 0.170375 0.800612 -0.574450 0.000000 
0.700163 1.206898 0.143492 106 103 92 -0.667610 -0.536442 0.516262 0.000000 
0.306871 0.941102 -0.498841 117 113 102 -0.714027 -0.558300 0.422452 0.000000 
0.232284 0.906627 -0.659151 94 84 64 0.837352 -0.394325 -0.378615 0.000000 
0.422229 1.023638 -0.316011 75 66 46 -0.143008 0.950267 -0.276660 0.000000 
0.397954 0.999039 -0.331171 103 92 76 0.614688 0.490066 -0.618056 0.000000 
0.654998 1.176445 0.090212 96 90 80 -0.188508 -0.770890 0.608436 0.000000 
0.280235 0.930879 -0.608712 84 82 75 -0.006370 0.928721 -0.370724 0.000000 
0.495784 1.064062 -0.186207 74 65 49 0.748835 0.267554 -0.606351 0.000000 
0.499696 1.084144 -0.172244 73 66 46 -0.413051 -0.541409 0.732301 0.000000 
0.329956 0.954483 -0.516081 76 70 57 0.746893 -0.561390 -0.356361 0.000000 
0.311430 0.932034 -0.515014 99 94 82 -0.142258 0.908480 -0.392971 0.000000 
0.581372 1.120772 -0.050335 67 63 37 0.486099 -0.859118 -0.160075 0.000000 
0.262948 0.924436 -0.631352 88 77 56 -0.085911 -0.987388 0.132985 0.000000 
0.662468 1.188437 0.093052 78 70 45 0.062080 -0.878773 0.473185 0.000000 
0.571985 1.118482 -0.050958 54 45 28 0.428238 -0.816677 -0.386847 0.000000 
0.278951 0.924670 -0.547852 89 86 79 0.672501 -0.709775 -0.209671 0.000000 
0.451539 1.035529 -0.278091 93 89 79 -0.333770 -0.695219 0.636606 0.000000 
0.184413 0.860058 -0.833611 97 92 77 -0.851006 0.138672 0.506516 0.000000 
0.464562 1.059915 -0.208520 78 69 56 0.882620 -0.256245 -0.394107 0.000000 
0.349121 0.960904 -0.479188 72 73 53 0.922062 -0.367998 -0.119909 0.000000 
0.170878 0.838692 -0.814192 49 42 29 0.966331 -0.020664 -0.256473 0.000000 
0.533080 1.082264 -0.104240 83 77 65 0.217920 -0.789767 0.573393 0.000000 
0.355099 0.975854 -0.469479 92 88 78 -0.715133 -0.580326 0.389624 0.000000 
0.590583 1.136734 -0.034899 103 99 90 0.354854 0.711344 -0.606686 0.000000 
0.588120 1.125952 -0.023137 65 54 39 0.758051 -0.568136 -0.320281 0.000000 
0.469945 1.064815 -0.216489 59 51 29 -0.391703 -0.735877 0.552317 0.000000 
0.540335 1.098121 -0.104008 49 40 21 -0.710481 0.507486 0.487519 0.000000 
0.389356 1.005448 -0.371576 62 58 50 0.609851 -0.790967 -0.049524 0.000000 
0.585545 1.120820 -0.019126 105 93 73 -0.661425 0.745738 0.079952 0.000000 
0.436737 1.013417 -0.293985 95 81 63 0.378812 -0.917197 0.123496 0.000000 
0.387089 0.999402 -0.366795 37 30 15 -0.692490 0.720698 -0.032438 0.000000 
0.423574 1.006198 -0.316747 74 61 44 0.327227 -0.931976 0.156020 0.000000 
0.151370 0.853403 -0.832045 69 61 48 0.609211 0.445642 -0.655945 0.000000 
0.205477 0.878847 -0.774619 85 77 57 -0.947732 -0.044765 0.315911 0.000000 
0.174599 0.839827 -0.850701 97 87 67 0.933865 0.001264 -0.357624 0.000000 
0.596466 1.130681 0.002350 111 101 88 0.083003 0.961553 -0.261777 0.000000 
0.219833 0.906301 -0.689528 78 74 60 0.577415 -0.814592 -0.055059 0.000000 
0.421928 1.022965 -0.277330 117 107 89 -0.766811 -0.323121 0.554612 0.000000 
0.598827 1.149243 0.003188 90 80 55 0.617632 -0.708891 -0.340594 0.000000 
0.499278 1.061175 -0.159418 96 83 67 0.453097 0.637011 -0.623635 0.000000 
0.449254 1.031516 -0.282047 81 74 60 -0.831894 -0.418315 0.364644 0.000000 
0.529756 1.102463 -0.112298 67 64 55 0.191353 -0.980536 -0.043976 0.000000 
0.493075 1.071242 -0.146639 107 104 99 0.540551 0.267925 -0.797509 0.000000 
0.626449 1.155930 0.022949 88 80 66 -0.834579 0.051898 0.548438 0.000000 
0.327812 0.967033 -0.473547 80 71 49 -0.902624 0.328361 0.278297 0.000000 
0.479124 1.040786 -0.221669 72 61 46 0.808971 -0.536736 -0.239752 0.000000 
0.234330 0.887739 -0.711868 82 73 54 0.782850 -0.505221 -0.363178 0.000000 
0.551186 1.105370 -0.095234 69 63 50 0.447638 -0.869994 0.206716 0.000000 
0.358559 0.987837 -0.433299 73 69 62 0.388870 -0.909249 -0.148478 0.000000 
0.250728 0.919506 -0.632379 80 75 67 -0.693106 0.593854 0.408585 0.000000 
0.191512 0.852103 -0.762301 90 83 70 0.088959 -0.971032 0.221771 0.000000 
0.485015 1.046123 -0.201759 92 78 62 -0.453523 0.876422 -0.161868 0.000000 
0.506887 1.058930 -0.162566 72 62 47 0.782241 -0.616179 -0.091771 0.000000 
0.451957 1.028120 -0.252469 87 72 53 -0.136607 -0.942723 0.304322 0.000000 
0.405839 1.002993 -0.317165 92 79 56 -0.319675 -0.820446 0.474000 0.000000 
0.264774 0.905015 -0.628514 83 73 55 -0.843946 0.447523 0.295768 0.000000 
0.598967 1.134838 -0.024758 80 73 50 0.889357 -0.003953 -0.457196 0.000000 
0.287693 0.945531 -0.549712 130 118 103 -0.916970 0.339036 0.210288 0.000000 
0.183925 0.844989 -0.783202 93 85 73 0.090463 -0.947893 0.305476 0.000000 
0.356530 0.986263 -0.397694 120 108 91 -0.800009 0.564443 0.203444 0.000000 
0.163894 0.873751 -0.803354 119 106 89 0.961672 -0.267760 -0.059083 0.000000 
0.470738 1.035335 -0.235266 75 63 46 0.796240 -0.502637 -0.336687 0.000000 
0.163920 0.831694 -0.828127 58 50 38 -0.390146 -0.530534 0.752542 0.000000 
0.271110 0.915061 -0.565366 124 115 104 0.641746 0.261452 -0.720974 0.000000 
0.652516 1.182611 0.086869 105 95 71 -0.590282 0.776198 0.221549 0.000000 
0.574671 1.133009 -0.030661 116 102 82 0.849149 -0.460530 -0.258570 0.000000 
0.543447 1.104018 -0.080542 69 64 54 -0.794496 0.183813 0.578782 0.000000 
0.519586 1.070686 -0.131686 77 68 55 0.262980 -0.813838 0.518180 0.000000 
0.557409 1.109823 -0.056531 69 65 56 0.804938 0.037797 -0.592154 0.000000 
0.184144 0.840416 -0.798682 92 84 67 -0.659445 0.639612 -0.395006 0.000000 
0.189644 0.850842 -0.820245 98 89 72 0.859467 -0.378042 -0.344095 0.000000 
0.373381 0.983807 -0.432442 76 72 60 -0.898949 -0.149587 0.411721 0.000000 
0.433185 1.022894 -0.314666 84 78 65 0.788418 0.255491 -0.559573 0.000000 
0.432400 1.023870 -0.313360 71 62 40 -0.749537 -0.482669 0.453017 0.000000 
0.329150 0.962336 -0.511156 81 72 54 0.112611 -0.961723 0.249815 0.000000 
0.372007 0.974689 -0.421888 78 66 49 0.964115 -0.165687 -0.207435 0.000000 
0.473232 1.050567 -0.229373 71 67 49 0.369249 0.909472 -0.191090 0.000000 
0.257505 0.901848 -0.651820 84 75 57 0.883491 -0.411306 -0.224214 0.000000 
0.333386 0.951301 -0.464759 107 97 80 -0.300022 -0.872654 0.385308 0.000000 
0.250316 0.900034 -0.606166 104 101 90 -0.144406 -0.955200 0.258341 0.000000 
0.326096 0.967273 -0.499453 73 71 64 0.166931 -0.936742 0.307649 0.000000 
0.384093 0.978569 -0.394896 76 71 51 0.762584 -0.630222 -0.145899 0.000000 
0.478954 1.074324 -0.193803 99 90 75 -0.528570 0.847654 0.045782 0.000000 
0.582204 1.116381 -0.028260 95 82 63 0.438478 -0.857094 -0.270420 0.000000 
0.462602 1.061262 -0.215631 70 66 58 0.814600 -0.428821 -0.390562 0.000000 
0.451625 1.024340 -0.276150 76 64 47 0.867021 -0.412939 -0.278848 0.000000 
0.179058 0.866516 -0.837868 85 78 53 0.630771 0.593766 -0.499570 0.000000 
0.567099 1.103881 -0.068452 105 92 72 -0.891936 0.050231 0.449362 0.000000 
0.202620 0.861845 -0.756170 111 99 83 0.730235 -0.677763 -0.085996 0.000000 
0.636004 1.162284 0.035105 93 86 63 -0.623014 -0.468520 0.626373 0.000000 
0.146967 0.869132 -0.839545 118 106 79 0.427503 -0.900369 0.081102 0.000000 
0.402686 0.995339 -0.380381 82 79 61 -0.903317 0.223275 0.366288 0.000000 
0.231429 0.896222 -0.648767 55 48 29 -0.390517 0.920595 -0.001280 0.000000 
0.345418 0.974074 -0.415483 130 125 115 -0.358369 -0.906804 0.221986 0.000000 
0.227513 0.884996 -0.663834 100 88 75 0.069367 0.941033 -0.331128 0.000000 
0.438605 1.023899 -0.305798 84 77 64 -0.862179 -0.201723 0.464710 0.000000 
0.663854 1.176579 0.088702 86 82 63 0.743704 -0.657607 -0.120240 0.000000 
0.451054 1.024621 -0.257183 69 59 44 -0.120274 -0.919334 0.374646 0.000000 
0.489285 1.065695 -0.194240 56 47 24 0.735565 0.313862 -0.600362 0.000000 
0.335555 0.965880 -0.503510 78 75 56 -0.328978 -0.771894 0.544017 0.000000 
0.534080 1.106874 -0.107216 79 72 50 0.522739 -0.834286 0.175245 0.000000 
0.233073 0.894659 -0.635704 90 85 77 0.773241 0.329552 -0.541751 0.000000 
0.406036 0.993959 -0.351052 91 78 60 -0.692544 0.718460 0.064791 0.000000 
0.216104 0.874431 -0.708733 98 85 69 0.722947 -0.681382 0.114306 0.000000 
0.420005 1.004257 -0.322093 74 62 45 0.320541 -0.946297 0.042143 0.000000 
0.233786 0.885670 -0.690844 83 72 51 0.313246 -0.945024 -0.093842 0.000000 
0.300466 0.926415 -0.555094 93 81 67 -0.845060 0.511755 0.154854 0.000000 
0.205291 0.891130 -0.745689 83 71 54 0.838653 -0.478571 -0.260059 0.000000 
0.502063 1.062550 -0.176674 75 66 44 -0.823925 -0.272565 0.496847 0.000000 
0.261143 0.909490 -0.580589 133 125 116 0.814766 0.397019 -0.422530 0.000000 
0.362757 0.990408 -0.391859 61 54 35 0.226366 -0.955024 0.191541 0.000000 
0.448763 1.034126 -0.277852 74 64 43 -0.147945 0.793522 -0.590284 0.000000 
0.175828 0.853221 -0.783435 74 64 47 -0.955145 0.293213 0.041528 0.000000 
0.412014 1.001449 -0.319159 74 67 54 -0.084656 0.928533 -0.361469 0.000000 
0.339289 0.963228 -0.500906 81 77 65 -0.750441 -0.035331 0.659992 0.000000 
0.657053 1.182606 0.073793 103 99 89 0.465868 0.696298 -0.546018 0.000000 
0.533175 1.088308 -0.111667 69 62 39 0.856862 -0.119932 -0.501402 0.000000 
0.350159 0.960491 -0.438517 100 88 74 0.207945 0.777867 -0.593027 0.000000 
0.212532 0.893636 -0.704503 76 68 56 0.458669 -0.871910 -0.171451 0.000000 
0.586780 1.136247 -0.012302 69 65 57 -0.747568 0.432111 0.504403 0.000000 
0.232789 0.901740 -0.697554 77 68 49 0.083453 -0.996016 -0.031430 0.000000 
0.223625 0.898067 -0.724761 90 79 59 0.029847 -0.975386 0.218477 0.000000 
0.290192 0.943969 -0.557183 77 71 62 0.531989 -0.838065 0.120973 0.000000 
0.412784 0.998558 -0.341352 71 60 43 -0.449107 0.879321 -0.158423 0.000000 
0.373495 0.992488 -0.382388 38 29 11 0.033390 -0.901541 0.431404 0.000000 
0.280938 0.932021 -0.555007 85 75 52 -0.747062 0.476603 0.463409 0.000000 
0.344299 0.956601 -0.486816 79 76 56 -0.784005 0.413916 0.462612 0.000000 
0.485893 1.068574 -0.168794 67 59 46 0.929798 0.084527 -0.358234 0.000000 
0.691910 1.204077 0.134546 84 78 53 -0.422098 -0.807282 0.412468 0.000000 
0.253367 0.897863 -0.614631 96 83 66 0.030434 0.990798 -0.131881 0.000000 
0.672844 1.181873 0.106952 97 91 79 0.134367 -0.980013 -0.146694 0.000000 
0.296438 0.943906 -0.562948 83 72 51 0.386987 -0.880885 0.272547 0.000000 
0.468466 1.067800 -0.208961 80 74 56 0.435651 -0.866779 -0.242698 0.000000 
0.154714 0.864604 -0.823901 101 86 58 -0.794767 0.606787 -0.012440 0.000000 
0.205481 0.893606 -0.747085 103 90 65 -0.738745 0.642724 0.202884 0.000000 
0.357814 0.980752 -0.402728 110 99 83 -0.606502 -0.720323 0.336584 0.000000 
0.349281 0.973403 -0.479419 94 91 84 -0.410053 -0.736119 0.538503 0.000000 
0.588263 1.126135 -0.023722 63 53 37 0.751322 -0.584717 -0.305975 0.000000 
0.183932 0.836174 -0.816517 92 88 68 0.902381 -0.430890 -0.006548 0.000000 
0.397925 0.993356 -0.368579 76 63 43 0.635757 -0.771084 -0.035242 0.000000 
0.176999 0.871026 -0.767869 82 75 61 0.569446 0.295091 -0.767237 0.000000 
0.276723 0.911722 -0.597267 83 73 53 0.810349 -0.560779 0.169888 0.000000 
0.234704 0.902888 -0.656317 52 42 30 0.898308 -0.006557 -0.439318 0.000000 
0.149169 0.862023 -0.849233 93 79 57 0.301471 -0.848757 0.434427 0.000000 
0.693408 1.208546 0.137618 117 113 102 0.741752 0.360280 -0.565688 0.000000 
0.339438 0.976101 -0.473048 85 75 53 0.124425 -0.987103 0.100725 0.000000 
0.454616 1.035471 -0.228425 89 82 72 0.422889 0.789069 -0.445573 0.000000 
0.538881 1.091062 -0.088460 89 76 54 0.606700 0.636951 -0.475613 0.000000 
0.561149 1.122171 -0.073115 73 73 54 -0.186268 0.902461 -0.388419 0.000000 
0.593414 1.134863 0.004780 103 95 74 -0.578328 -0.288368 0.763139 0.000000 
0.575398 1.112985 -0.040101 78 70 57 0.634513 -0.670771 -0.384004 0.000000 
0.349801 0.964224 -0.480823 71 72 52 0.964161 -0.217294 -0.152236 0.000000 
0.546889 1.102766 -0.102079 65 59 44 0.742402 -0.669424 -0.026665 0.000000 
0.351623 0.961602 -0.435759 98 85 72 0.446582 0.825308 -0.345588 0.000000 
0.698267 1.205447 0.140196 108 105 94 -0.496901 -0.684284 0.533708 0.000000 
0.207064 0.866880 -0.752127 84 81 58 0.890725 -0.428867 -0.150606 0.000000 
0.558298 1.100608 -0.073048 73 67 48 0.967523 -0.180034 -0.177444 0.000000 
0.544358 1.107824 -0.104955 78 71 48 0.044634 0.975919 -0.213520 0.000000 
0.293763 0.937715 -0.521804 102 92 68 0.621479 -0.759586 -0.191815 0.000000 
0.475871 1.040298 -0.227928 74 63 47 0.768825 -0.448889 -0.455419 0.000000 
0.215206 0.889351 -0.688881 56 44 22 -0.535203 0.833030 0.140067 0.000000 
0.297362 0.939369 -0.521252 56 48 29 -0.614658 0.788696 -0.012431 0.000000 
0.242688 0.890795 -0.687279 82 74 56 0.557653 -0.828792 -0.046122 0.000000 
0.383662 0.988057 -0.413074 83 74 60 -0.930228 -0.076073 0.359012 0.000000 
0.583137 1.133483 -0.039765 69 62 39 0.089583 0.905475 -0.414837 0.000000 
0.587437 1.131165 -0.005880 134 126 112 0.803548 -0.260568 -0.535178 0.000000 
0.568522 1.116056 -0.036402 110 98 79 -0.807233 -0.144202 0.572347 0.000000 
0.208131 0.891166 -0.716393 69 62 50 0.635754 -0.768383 0.073523 0.000000 
0.354588 0.957152 -0.444740 92 79 65 -0.301565 0.944905 0.127328 0.000000 
0.343063 0.948296 -0.483597 82 73 58 -0.857541 0.384735 0.341471 0.000000 
0.357814 0.986811 -0.398575 75 69 52 -0.445866 0.872476 -0.199973 0.000000 
0.346491 0.974285 -0.420337 121 110 96 -0.650808 -0.603964 0.460083 0.000000 
0.223940 0.891580 -0.738236 88 83 67 0.807109 0.335897 -0.485539 0.000000 
0.237471 0.902621 -0.649187 47 38 17 0.877922 -0.234810 -0.417274 0.000000 
0.514979 1.067294 -0.149364 75 66 51 0.873846 -0.364484 -0.321783 0.000000 
0.175253 0.824492 -0.836629 101 93 74 0.868618 -0.495394 0.009398 0.000000 
0.171371 0.870431 -0.818250 94 79 53 0.127351 -0.829974 -0.543070 0.000000 
0.705540 1.209480 0.158372 89 86 62 0.746717 0.327394 -0.578988 0.000000 
0.312985 0.943312 -0.548140 100 89 78 -0.847723 0.391857 0.357511 0.000000 
0.195219 0.855345 -0.751522 89 84 72 0.476472 -0.693810 0.540002 0.000000 
0.250946 0.918319 -0.653897 80 72 50 0.188534 -0.961127 0.201718 0.000000 
0.276574 0.910185 -0.581303 110 99 84 -0.552291 0.823282 -0.131077 0.000000 
0.414933 1.004473 -0.307221 80 74 63 -0.172777 -0.922881 0.344149 0.000000 
0.596499 1.129336 -0.006847 70 66 46 -0.926425 0.357159 0.119053 0.000000 
0.640649 1.174132 0.060964 86 76 48 0.221078 -0.965762 0.135750 0.000000 
0.695685 1.205663 0.151980 106 93 70 0.882090 0.133389 -0.451802 0.000000 
0.294406 0.937292 -0.519332 133 124 112 -0.827346 0.406554 0.387571 0.000000 
0.395939 0.988692 -0.363397 74 63 46 -0.728552 0.661065 0.179454 0.000000 
0.708272 1.210322 0.172717 90 86 70 -0.625474 -0.736317 -0.258107 0.000000 
0.233037 0.885375 -0.688031 83 73 52 0.547233 -0.835545 -0.048985 0.000000 
0.230433 0.900259 -0.711009 84 74 55 -0.084311 -0.978745 0.186951 0.000000 
0.288372 0.917344 -0.558261 82 77 63 0.475193 -0.867554 -0.146772 0.000000 
0.299220 0.931748 -0.565448 79 70 53 -0.763075 0.553350 0.333946 0.000000 
0.349833 0.964862 -0.431482 107 97 82 0.529418 0.749053 -0.398293 0.000000 
0.177434 0.845502 -0.780454 116 106 93 -0.602392 -0.704158 0.375879 0.000000 
0.621109 1.148245 0.039168 92 87 78 0.509752 -0.794190 0.330779 0.000000 
0.238383 0.915668 -0.651114 94 86 64 -0.210108 0.964411 0.160518 0.000000 
0.288337 0.934795 -0.549294 37 29 11 0.896530 -0.255519 -0.361861 0.000000 
0.409275 1.019219 -0.298439 116 104 86 0.734167 0.367901 -0.570655 0.000000 
0.262768 0.900028 -0.629530 84 73 56 -0.888934 0.331289 0.316298 0.000000 
0.313072 0.938859 -0.502352 104 89 71 -0.231620 -0.933500 0.273733 0.000000 
0.519329 1.093801 -0.110424 85 75 56 -0.929942 -0.006361 0.367651 0.000000 
0.246619 0.894768 -0.659111 85 75 56 -0.459070 0.886622 0.056185 0.000000 
0.265796 0.929361 -0.611406 93 81 62 0.064785 0.959071 -0.275654 0.000000 
0.550331 1.098662 -0.067398 100 96 88 -0.272458 -0.683535 0.677161 0.000000 
0.658875 1.178519 0.091846 97 83 63 -0.174537 -0.898651 0.402446 0.000000 
0.160454 0.865056 -0.833187 91 80 63 -0.663563 0.637086 0.392180 0.000000 
0.679370 1.207554 0.125171 113 107 94 -0.619315 -0.174991 0.765394 0.000000 
0.647764 1.167915 0.057818 95 84 68 -0.707891 0.579183 0.404273 0.000000 
0.310684 0.929824 -0.539616 77 73 55 -0.763566 0.436557 0.475798 0.000000 
0.480691 1.074716 -0.195299 77 72 56 0.173302 -0.965542 0.194151 0.000000 
0.406544 1.027054 -0.307370 63 58 42 0.060850 -0.946406 0.317195 0.000000 
0.205824 0.866488 -0.747168 89 80 62 -0.900636 0.400762 -0.168061 0.000000 
0.258648 0.920911 -0.646422 82 73 51 -0.064997 -0.929860 0.362128 0.000000 
0.183607 0.842571 -0.835050 96 88 70 0.980680 -0.076181 -0.180174 0.000000 
0.299425 0.941914 -0.578808 101 95 84 -0.366900 -0.780672 0.505901 0.000000 
0.614268 1.154836 0.024691 87 76 51 0.630224 -0.776403 0.004137 0.000000 
0.227825 0.897799 -0.727474 103 98 87 -0.469297 -0.745935 0.472590 0.000000 
0.244300 0.891028 -0.634793 97 89 75 -0.096200 0.973249 -0.208643 0.000000 
0.164311 0.849483 -0.866045 79 72 52 -0.631823 -0.571168 0.523992 0.000000 
0.265946 0.916199 -0.569545 117 111 95 0.811086 -0.106300 -0.575187 0.000000 
0.206496 0.859617 -0.759120 102 94 72 0.914966 -0.389376 -0.105943 0.000000 
0.507574 1.088588 -0.162737 100 97 87 -0.153042 -0.716723 0.680357 0.000000 
0.274056 0.933519 -0.597272 79 73 55 -0.084922 -0.975983 0.200612 0.000000 
0.259190 0.894896 -0.625252 88 80 65 0.084978 -0.947834 0.307229 0.000000 
0.400878 1.012728 -0.344046 52 47 37 0.661109 -0.750185 0.012526 0.000000 
0.654707 1.180732 0.092101 93 91 80 -0.793678 0.018007 0.608071 0.000000 
0.538674 1.086543 -0.095680 90 78 65 0.006870 0.803757 -0.594918 0.000000 
0.415489 1.011728 -0.297015 81 75 62 0.635655 0.581700 -0.507512 0.000000 
0.350580 0.959004 -0.468583 74 72 53 0.904504 -0.194750 -0.379401 0.000000 
0.284904 0.915490 -0.562028 105 95 82 -0.538890 0.839993 -0.063316 0.000000 
0.603140 1.136171 0.001555 61 51 38 0.548149 -0.788260 -0.279603 0.000000 
0.517760 1.090049 -0.146779 74 69 54 0.849707 -0.009486 -0.527170 0.000000 
0.324259 0.939456 -0.519240 81 72 57 -0.840190 0.145672 0.522360 0.000000 
0.352554 0.956287 -0.443505 98 82 62 0.042778 -0.937218 0.346110 0.000000 
0.433049 1.042470 -0.260937 83 72 50 -0.710738 0.673576 0.202847 0.000000 
0.263989 0.902802 -0.608453 87 78 60 0.529873 -0.848067 -0.004045 0.000000 
0.433473 1.038713 -0.256106 115 103 84 -0.873134 0.128021 0.470370 0.000000 
0.334125 0.954969 -0.513656 77 75 56 0.835745 -0.440608 -0.327712 0.000000 
0.584415 1.139089 -0.022476 81 75 63 -0.443097 0.895622 0.039057 0.000000 
0.629147 1.153231 0.034075 89 76 59 0.535353 -0.842867 -0.054514 0.000000 
0.554572 1.119015 -0.068512 67 65 56 0.380471 -0.922476 -0.065414 0.000000 
0.545493 1.112748 -0.082890 88 76 51 -0.213056 0.974147 0.075124 0.000000 
0.204158 0.864288 -0.726669 89 84 73 0.307899 -0.929322 0.203860 0.000000 
0.199426 0.887893 -0.756486 74 65 54 0.685778 -0.646684 -0.333930 0.000000 
0.208531 0.870629 -0.742238 78 67 46 0.777539 -0.626864 -0.049751 0.000000 
0.624292 1.152049 0.019253 85 75 60 -0.911936 0.269072 0.309796 0.000000 
0.623188 1.149372 0.028245 82 67 53 0.300961 -0.936169 0.181686 0.000000 
0.689345 1.196006 0.131991 101 98 87 -0.130605 -0.905810 0.403051 0.000000 
0.647664 1.170243 0.053963 116 106 96 -0.867096 0.045347 0.496072 0.000000 
0.574311 1.119219 -0.063407 80 75 63 -0.915847 0.250303 0.313963 0.000000 
0.193309 0.852588 -0.812308 116 106 94 0.804274 -0.552073 -0.219907 0.000000 
0.416995 1.031149 -0.296511 61 55 35 0.064139 0.899305 -0.432594 0.000000 
0.554446 1.117368 -0.076888 73 63 40 0.013961 -0.937948 0.346495 0.000000 
0.557976 1.116885 -0.077959 74 66 42 -0.116933 0.955175 -0.271969 0.000000 
0.270558 0.929263 -0.613540 78 73 65 0.104739 -0.994485 -0.005399 0.000000 
0.303199 0.935692 -0.561237 78 68 52 0.793698 -0.523300 -0.310163 0.000000 
0.296488 0.923399 -0.535813 123 113 101 0.055990 -0.938812 0.339848 0.000000 
0.239703 0.887310 -0.664339 87 77 59 0.473034 -0.877695 -0.076746 0.000000 
0.228689 0.911164 -0.667644 122 109 92 0.847758 -0.464504 -0.256014 0.000000 
0.221417 0.898590 -0.723266 94 82 59 -0.193699 0.978242 -0.074312 0.000000 
0.525739 1.088800 -0.126438 58 47 28 -0.942969 0.268436 0.196853 0.000000 
0.478869 1.072841 -0.188910 88 79 55 0.800883 -0.569888 -0.183884 0.000000 
0.490065 1.052777 -0.199791 73 68 47 0.918680 0.043621 -0.392587 0.000000 
0.611126 1.140271 0.018465 70 62 51 0.551920 -0.819698 -0.153229 0.000000 
0.382128 1.003658 -0.376495 67 59 38 0.771254 -0.636526 -0.001375 0.000000 
0.581318 1.132764 -0.043433 72 65 40 0.156108 -0.868079 0.471243 0.000000 
0.352198 0.967479 -0.473426 73 73 52 -0.871463 0.422938 0.248344 0.000000 
0.459815 1.032884 -0.261805 79 68 52 0.909589 -0.240131 -0.339095 0.000000 
0.176551 0.837508 -0.846714 94 84 64 0.855976 -0.284301 -0.431830 0.000000 
0.429041 1.039012 -0.265653 84 74 53 -0.759572 0.570081 0.313143 0.000000 
0.332391 0.950257 -0.469950 96 90 75 0.101842 0.927439 -0.359841 0.000000 
0.280892 0.914524 -0.583999 82 71 53 0.658956 -0.721269 -0.213421 0.000000 
0.663698 1.178813 0.084962 102 89 77 0.860782 -0.437247 -0.260520 0.000000 
0.582195 1.134180 -0.016866 99 91 69 -0.890752 0.270061 0.365552 0.000000 
0.185329 0.864131 -0.769743 36 26 12 -0.918565 0.394787 0.019544 0.000000 
0.210987 0.892130 -0.716968 78 66 38 0.390542 -0.907477 0.154797 0.000000 
0.524955 1.074628 -0.121715 76 69 56 0.274166 -0.907532 0.318149 0.000000 
0.256523 0.917356 -0.655134 81 73 52 -0.367493 -0.739885 0.563489 0.000000 
0.617492 1.144955 0.017423 78 62 45 -0.477853 0.871546 0.109835 0.000000 
0.295340 0.929899 -0.580253 90 80 59 0.875270 -0.473692 -0.097566 0.000000 
0.408503 0.998968 -0.361753 72 66 44 -0.843066 0.392597 0.367570 0.000000 
0.265072 0.902882 -0.600640 94 85 70 0.365444 -0.923875 -0.113602 0.000000 
0.365644 0.992541 -0.414116 91 80 57 -0.627785 0.769590 0.116694 0.000000 
0.539002 1.090137 -0.102369 75 65 49 0.865818 -0.162616 -0.473197 0.000000 
0.423052 1.037373 -0.276462 95 86 71 -0.553928 0.827295 0.093520 0.000000 
0.205712 0.864054 -0.774343 104 95 71 0.940328 -0.320597 -0.114020 0.000000 
0.232191 0.885486 -0.712024 79 69 51 -0.633196 0.766034 0.110699 0.000000 
0.193159 0.862484 -0.731100 85 83 76 0.722474 0.592004 -0.357160 0.000000 
0.434422 1.044014 -0.259852 82 75 60 0.508524 -0.856983 -0.083574 0.000000 
0.353329 0.976992 -0.466712 80 72 54 0.295352 0.829798 -0.473500 0.000000 
0.420120 1.012327 -0.341631 74 66 45 0.803012 0.154023 -0.575716 0.000000 
0.586709 1.125793 -0.036358 68 58 43 0.671241 -0.741017 0.018142 0.000000 
0.661931 1.177197 0.094391 97 90 79 0.251639 0.944677 -0.210387 0.000000 
0.622126 1.150842 0.014022 84 77 53 -0.910346 0.151019 0.385309 0.000000 
0.693689 1.201710 0.147203 118 114 99 0.679627 0.391902 -0.620097 0.000000 
0.624348 1.167715 0.046664 85 78 45 0.699488 -0.651247 -0.294267 0.000000 
0.348650 0.955890 -0.470118 80 71 54 -0.868407 0.430428 0.246174 0.000000 
0.348769 0.980642 -0.461989 75 70 49 -0.147955 0.856969 -0.493673 0.000000 
0.299605 0.935634 -0.577603 85 79 65 -0.760496 0.611196 0.219284 0.000000 
0.423910 1.016789 -0.282121 85 76 54 0.484042 0.464218 -0.741758 0.000000 
0.233638 0.884515 -0.682688 101 88 73 0.437835 -0.898432 -0.033474 0.000000 
0.599930 1.133326 0.009642 124 113 94 0.606198 0.449221 -0.656297 0.000000 
0.415005 1.017357 -0.344608 90 89 81 0.383062 0.761234 -0.523246 0.000000 
0.328315 0.963170 -0.508126 80 72 50 0.117049 -0.979514 0.163868 0.000000 
0.434321 1.037647 -0.256113 84 74 58 0.874488 -0.136864 -0.465337 0.000000 
0.356203 0.972366 -0.470617 89 85 65 0.889154 -0.099417 -0.446678 0.000000 
0.367759 0.963025 -0.422066 80 79 65 -0.488923 0.842288 0.226946 0.000000 
0.196817 0.849166 -0.777201 91 87 70 0.588258 -0.777618 0.221955 0.000000 
0.566388 1.119994 -0.074116 71 66 49 0.092018 0.749293 -0.655814 0.000000 
0.570365 1.108284 -0.053913 95 83 65 0.906753 -0.259281 -0.332525 0.000000 
0.342609 0.973134 -0.426102 119 110 98 0.713354 -0.415434 -0.564394 0.000000 
0.568566 1.112386 -0.056162 66 60 40 -0.959995 0.077768 0.269002 0.000000 
0.475083 1.051144 -0.224793 68 59 40 -0.290047 -0.842223 0.454459 0.000000 
0.194332 0.851229 -0.793047 115 105 88 0.681045 -0.725173 -0.101495 0.000000 
0.293743 0.954040 -0.537911 80 76 65 0.084033 -0.955394 0.283128 0.000000 
0.322823 0.955696 -0.465714 111 100 84 -0.627386 -0.175546 0.758664 0.000000 
0.683530 1.199695 0.130111 123 117 99 -0.729986 0.052856 0.681415 0.000000 
0.607478 1.139466 0.000111 96 78 54 0.481712 -0.876205 -0.014760 0.000000 
0.570860 1.129081 -0.052906 82 77 66 0.139542 -0.906318 0.398893 0.000000 
0.369142 0.966684 -0.421314 78 68 53 0.808970 -0.578669 -0.103490 0.000000 
0.565558 1.108876 -0.045433 86 78 63 -0.420751 -0.724352 0.546152 0.000000 
0.408270 1.017869 -0.334839 65 59 47 0.311577 -0.937477 -0.155102 0.000000 
0.390042 1.004450 -0.354455 37 29 14 0.332824 -0.893999 0.299990 0.000000 
0.193987 0.852419 -0.773116 89 81 64 -0.616135 0.772805 0.152151 0.000000 
0.564038 1.114172 -0.082254 101 100 86 0.481954 0.698750 -0.528648 0.000000 
0.175458 0.843871 -0.849854 96 86 68 0.877770 -0.036744 -0.477670 0.000000 
0.349267 0.976045 -0.428350 34 28 16 0.558418 -0.828576 0.040384 0.000000 
0.624124 1.154725 0.017031 95 88 75 0.855398 0.234667 -0.461764 0.000000 
0.436613 1.019848 -0.270146 85 75 58 0.142464 0.906974 -0.396360 0.000000 
0.498817 1.077567 -0.173859 67 60 42 0.888736 -0.047635 -0.455937 0.000000 
0.366284 0.972933 -0.435027 79 69 50 -0.763828 0.449792 0.462876 0.000000 
0.308086 0.930870 -0.520320 111 101 86 -0.085691 0.960503 -0.264746 0.000000 
0.397556 1.020649 -0.323411 62 57 39 -0.675481 0.659204 -0.330416 0.000000 
0.404105 1.027927 -0.308460 130 119 102 0.245020 -0.791242 0.560268 0.000000 
0.261425 0.911870 -0.649369 80 73 56 -0.896652 0.334571 0.289962 0.000000 
0.426408 1.026393 -0.307502 79 68 47 -0.221138 0.912014 -0.345438 0.000000 
0.335702 0.965681 -0.503120 77 71 54 -0.438317 -0.722810 0.534251 0.000000 
0.474217 1.061604 -0.191834 82 71 55 0.866281 -0.281655 -0.412587 0.000000 
0.453948 1.057984 -0.228361 95 87 67 0.671053 -0.607777 -0.424612 0.000000 
0.216606 0.879562 -0.738740 64 54 38 0.577379 -0.770366 -0.270498 0.000000 
0.238465 0.888533 -0.676338 100 86 71 0.525205 -0.842365 -0.120753 0.000000 
0.638926 1.165596 0.041462 89 82 72 -0.850751 -0.301083 0.430780 0.000000 
0.255515 0.908764 -0.578772 108 100 82 -0.050640 -0.880044 0.472185 0.000000 
0.345890 0.952338 -0.481782 86 79 57 0.943095 -0.125118 -0.308087 0.000000 
0.355761 0.968475 -0.465393 75 75 54 -0.783297 0.523800 0.334783 0.000000 
0.377495 0.986632 -0.373119 92 78 59 -0.588451 -0.615429 0.524379 0.000000 
0.229734 0.885063 -0.721603 82 77 53 0.747590 -0.604738 -0.274592 0.000000 
0.338449 0.960175 -0.498945 79 73 59 0.733473 -0.458627 -0.501676 0.000000 
0.270200 0.934808 -0.585170 96 84 60 0.846887 0.523035 -0.096009 0.000000 
0.436297 1.030485 -0.295794 69 59 36 -0.237293 -0.968004 0.081609 0.000000 
0.391622 1.003762 -0.336712 102 90 72 -0.642509 -0.564935 0.517717 0.000000 
0.353225 0.955266 -0.457689 80 72 56 0.863409 -0.486121 -0.134953 0.000000 
0.171419 0.854939 -0.856378 107 103 90 0.755581 0.393294 -0.523848 0.000000 
0.669691 1.194049 0.107318 85 78 54 0.376294 -0.890909 0.254333 0.000000 
0.606808 1.135571 0.017240 77 78 60 0.172160 -0.745009 0.644455 0.000000 
0.486275 1.069256 -0.195514 53 44 23 -0.799866 -0.227428 0.555420 0.000000 
0.194710 0.876738 -0.804907 108 104 93 0.262265 0.939435 -0.220635 0.000000 
0.484821 1.044497 -0.212618 99 89 73 -0.876828 0.366231 0.311525 0.000000 
0.320593 0.942759 -0.532440 104 95 82 0.848837 -0.337977 -0.406507 0.000000 
0.260994 0.909029 -0.651810 98 90 80 0.980842 -0.169363 -0.096257 0.000000 
0.439371 1.014380 -0.288545 71 61 47 -0.332118 0.933483 -0.135307 0.000000 
0.194712 0.879932 -0.791431 62 54 37 -0.514058 -0.822802 0.242364 0.000000 
0.538171 1.100276 -0.109502 59 51 32 0.534528 -0.810313 -0.240150 0.000000 
0.481490 1.046072 -0.197951 98 82 64 -0.124207 -0.932237 0.339864 0.000000 
0.527526 1.090902 -0.123313 59 48 28 0.875849 -0.368859 -0.311177 0.000000 
