ply
format ascii 1.0
comment Created by Open3D
obj_info Generated by CloudCompare!
element vertex 616
property float x
property float y
property float z
property uchar red
property uchar green
property uchar blue
property float nx
property float ny
property float nz
property float scalar_leaf0
end_header
0.409787 -0.532892 -1.683826 125 104 71 0.351797 -0.750608 -0.559309 0.000000 
0.689673 -0.704964 -1.286057 97 75 44 -0.757590 -0.607013 -0.239982 0.000000 
0.463393 -0.565688 -1.588505 96 82 66 0.632013 -0.661872 -0.403095 0.000000 
0.374558 -0.504678 -1.761484 97 81 55 0.134478 -0.811304 -0.568947 0.000000 
0.655391 -0.691788 -1.339708 139 124 109 0.782691 0.138648 -0.606772 0.000000 
0.428535 -0.546650 -1.649233 102 86 66 -0.782483 0.508211 0.359781 0.000000 
0.409554 -0.530625 -1.689393 104 94 80 -0.314596 0.831098 0.458591 0.000000 
0.499812 -0.592171 -1.533911 94 81 69 0.760760 0.485905 -0.430279 0.000000 
0.574617 -0.639099 -1.427633 118 91 68 -0.688937 0.358378 0.630025 0.000000 
0.561248 -0.624969 -1.452013 134 113 87 0.081533 -0.931609 -0.354199 0.000000 
0.404765 -0.522426 -1.735932 127 120 110 0.817221 0.567555 -0.100157 0.000000 
0.426373 -0.536368 -1.664627 110 100 89 -0.104722 0.970252 0.218275 0.000000 
0.723371 -0.722933 -1.245303 96 81 58 0.595217 0.800760 0.067087 0.000000 
0.378475 -0.523988 -1.734049 83 72 57 0.925980 0.029954 -0.376383 0.000000 
0.367960 -0.493069 -1.799497 85 72 51 0.106743 0.984674 0.137926 0.000000 
0.439727 -0.566053 -1.629732 85 69 51 0.948571 0.271213 -0.163268 0.000000 
0.457444 -0.572091 -1.595455 94 82 69 -0.764538 0.218661 0.606358 0.000000 
0.630774 -0.675422 -1.368468 92 76 54 -0.574267 0.770436 0.276851 0.000000 
0.428436 -0.550939 -1.640051 91 71 52 0.814899 -0.409841 -0.409841 0.000000 
0.337242 -0.474483 -1.846291 84 74 56 0.376153 -0.906514 -0.191679 0.000000 
0.434774 -0.554202 -1.627846 79 68 54 0.863789 0.009404 -0.503765 0.000000 
0.664092 -0.700738 -1.312559 93 67 44 0.676937 0.732020 0.076826 0.000000 
0.291010 -0.450191 -1.939274 116 100 78 0.952227 -0.016182 -0.304962 0.000000 
0.657922 -0.685194 -1.331232 99 75 46 0.786402 0.527990 -0.320622 0.000000 
0.440071 -0.552992 -1.621952 69 59 48 -0.557562 0.638417 0.530611 0.000000 
0.518589 -0.598115 -1.511078 79 71 61 0.734276 -0.440566 -0.516469 0.000000 
0.375798 -0.497776 -1.781312 99 85 64 0.399977 0.892257 0.209512 0.000000 
0.313848 -0.475803 -1.886878 86 74 64 -0.905301 0.324265 0.274378 0.000000 
0.535961 -0.602767 -1.498971 131 120 107 0.581124 0.811300 -0.063938 0.000000 
0.690109 -0.704912 -1.282954 97 76 46 0.579940 0.689613 0.433709 0.000000 
0.645705 -0.674638 -1.336998 113 94 75 0.548409 -0.619280 -0.561908 0.000000 
0.354643 -0.486554 -1.818850 87 72 47 0.068187 0.997628 0.009441 0.000000 
0.712838 -0.718658 -1.252162 101 82 58 0.214479 -0.782308 -0.584802 0.000000 
0.430691 -0.544121 -1.672222 101 87 61 0.718937 0.496448 -0.486486 0.000000 
0.612114 -0.658679 -1.378070 113 98 84 0.502755 -0.703189 -0.502755 0.000000 
0.428771 -0.543093 -1.675655 96 83 59 -0.901153 -0.318141 0.294465 0.000000 
0.469918 -0.578198 -1.566133 99 83 61 0.867021 -0.278848 -0.412939 0.000000 
0.392058 -0.526217 -1.709308 108 92 72 -0.701783 0.650394 0.290670 0.000000 
0.392508 -0.514576 -1.761080 100 93 73 -0.851834 -0.497518 0.163871 0.000000 
0.620758 -0.660364 -1.372715 110 86 58 -0.471990 -0.606365 -0.639958 0.000000 
0.318218 -0.453031 -1.914021 100 88 67 -0.076034 -0.981195 -0.177412 0.000000 
0.398094 -0.524307 -1.705410 99 87 72 0.032302 -0.934184 -0.355326 0.000000 
0.644471 -0.678865 -1.336473 98 78 59 -0.529530 0.657290 0.536254 0.000000 
0.492974 -0.584077 -1.544100 114 103 93 0.362787 -0.628722 -0.687818 0.000000 
0.553482 -0.620736 -1.469729 110 90 64 -0.503276 -0.842799 -0.190794 0.000000 
0.716986 -0.721383 -1.248030 109 87 56 0.036784 0.875997 0.480913 0.000000 
0.312338 -0.460301 -1.909934 101 86 72 -0.675703 0.237835 0.697754 0.000000 
0.334891 -0.493238 -1.836131 112 100 82 0.753896 -0.319883 -0.573861 0.000000 
0.491934 -0.590500 -1.546643 87 74 60 0.787928 0.422278 -0.448164 0.000000 
0.298761 -0.461793 -1.920902 89 77 64 0.935192 -0.094991 -0.341164 0.000000 
0.662301 -0.696690 -1.311796 96 80 62 0.869469 -0.001331 -0.493986 0.000000 
0.620820 -0.660389 -1.368942 134 112 92 -0.161668 -0.878249 -0.450048 0.000000 
0.639709 -0.684658 -1.361264 140 127 116 -0.587752 0.190829 0.786214 0.000000 
0.511477 -0.599664 -1.520178 83 73 63 0.858000 0.329286 -0.394216 0.000000 
0.471613 -0.577576 -1.567758 133 113 87 0.807298 -0.418896 -0.415686 0.000000 
0.544756 -0.610553 -1.481441 107 89 63 -0.503269 -0.847690 -0.167756 0.000000 
0.518445 -0.605583 -1.504623 134 119 104 0.787195 0.218064 -0.576864 0.000000 
0.421797 -0.541212 -1.661861 121 102 77 0.379797 -0.695473 -0.609977 0.000000 
0.465185 -0.555062 -1.610174 100 98 92 0.519436 0.846434 0.117199 0.000000 
0.336710 -0.477807 -1.846242 97 79 55 0.452885 -0.862136 -0.227195 0.000000 
0.450487 -0.576103 -1.601082 113 103 91 -0.868762 -0.287559 0.403191 0.000000 
0.451214 -0.551539 -1.629819 132 120 105 -0.788456 -0.615078 -0.004128 0.000000 
0.658413 -0.686020 -1.320062 99 77 50 0.038006 0.789691 0.612327 0.000000 
0.423694 -0.538148 -1.660110 104 90 75 0.243882 -0.806209 -0.539026 0.000000 
0.414014 -0.551111 -1.677064 86 74 59 -0.822532 -0.543860 0.166304 0.000000 
0.401594 -0.524942 -1.699818 102 91 77 0.070617 -0.953974 -0.291456 0.000000 
0.517345 -0.596251 -1.513188 78 66 52 -0.541279 0.350619 0.764253 0.000000 
0.553026 -0.617280 -1.465655 117 100 82 0.501027 -0.675298 -0.541244 0.000000 
0.464105 -0.561618 -1.597147 116 102 86 0.092183 -0.968556 -0.231090 0.000000 
0.596883 -0.653746 -1.402391 100 79 59 -0.456085 0.446277 -0.769950 0.000000 
0.401552 -0.519284 -1.723766 98 84 61 0.323514 0.922088 0.212351 0.000000 
0.337849 -0.499023 -1.824683 137 129 113 -0.919454 0.014265 0.392940 0.000000 
0.315550 -0.452178 -1.917593 102 90 69 -0.154393 -0.971015 -0.182464 0.000000 
0.454621 -0.555549 -1.613852 111 98 81 -0.403449 -0.863656 -0.302203 0.000000 
0.386042 -0.517639 -1.727691 87 77 62 0.366230 -0.807626 -0.462186 0.000000 
0.713401 -0.717961 -1.261354 113 87 54 0.586295 0.643412 -0.492219 0.000000 
0.714197 -0.728694 -1.250428 112 89 66 -0.665569 0.133114 0.734369 0.000000 
0.616010 -0.670022 -1.387233 90 76 56 0.906047 0.412341 -0.095156 0.000000 
0.446740 -0.548506 -1.640395 128 115 98 0.535117 0.843678 0.043087 0.000000 
0.541698 -0.622644 -1.473119 137 120 102 -0.776738 0.100932 0.621683 0.000000 
0.364629 -0.503730 -1.769068 95 83 62 -0.832289 0.315047 0.456113 0.000000 
0.637164 -0.672463 -1.344921 106 86 60 -0.344821 0.645519 0.681472 0.000000 
0.437806 -0.553648 -1.622440 69 58 45 -0.629684 0.575663 0.521642 0.000000 
0.447209 -0.549947 -1.626307 100 84 57 -0.310519 -0.942311 -0.125014 0.000000 
0.379763 -0.506187 -1.757457 89 72 43 0.094091 -0.917726 -0.385909 0.000000 
0.434753 -0.567908 -1.642387 107 97 86 0.633269 0.742185 -0.219388 0.000000 
0.405759 -0.539562 -1.678623 135 120 92 0.697388 -0.513425 -0.500045 0.000000 
0.311057 -0.454539 -1.895730 94 85 73 0.172950 -0.705574 -0.687207 0.000000 
0.392752 -0.513050 -1.745763 101 89 68 0.524507 0.831096 0.184855 0.000000 
0.714551 -0.730694 -1.250160 127 118 110 -0.141655 -0.857232 0.495063 0.000000 
0.382580 -0.509569 -1.742945 87 74 58 0.038715 -0.906456 -0.420521 0.000000 
0.616280 -0.657434 -1.377083 102 82 56 -0.021121 0.955431 0.294457 0.000000 
0.470226 -0.579619 -1.573171 88 66 46 0.843207 0.120458 -0.523920 0.000000 
0.425183 -0.559104 -1.656464 85 71 54 0.676736 0.525604 -0.515528 0.000000 
0.425673 -0.541035 -1.658777 98 86 72 -0.274422 0.801312 0.531594 0.000000 
0.597565 -0.648621 -1.406005 147 132 116 0.548847 0.835081 -0.037516 0.000000 
0.476177 -0.567806 -1.585346 114 92 61 -0.497231 -0.862718 0.092080 0.000000 
0.662585 -0.698768 -1.316278 94 67 44 0.617671 0.347134 0.705677 0.000000 
0.595407 -0.645584 -1.407295 130 124 119 -0.047355 -0.948384 -0.313568 0.000000 
0.625085 -0.662078 -1.365827 112 104 97 -0.347839 -0.898461 -0.267910 0.000000 
0.549198 -0.623822 -1.477549 95 80 58 0.847208 -0.252784 0.467267 0.000000 
0.321380 -0.454792 -1.908134 103 93 77 0.417561 0.883813 0.210994 0.000000 
0.307390 -0.445566 -1.940683 100 94 82 0.383574 0.908316 0.166833 0.000000 
0.396773 -0.521614 -1.714115 113 95 66 0.148380 0.927719 0.342521 0.000000 
0.362705 -0.510737 -1.775181 84 71 57 0.893601 -0.070006 -0.443369 0.000000 
0.389023 -0.512811 -1.738132 89 74 46 0.091322 0.972020 0.216421 0.000000 
0.503626 -0.594543 -1.532033 89 74 58 -0.736855 -0.436838 0.515963 0.000000 
0.613476 -0.667361 -1.377162 81 71 62 0.758300 0.434016 -0.486426 0.000000 
0.405339 -0.545331 -1.685216 96 86 73 -0.778496 -0.585814 0.225313 0.000000 
0.564177 -0.625725 -1.448044 110 91 64 -0.236100 0.848436 0.473723 0.000000 
0.671417 -0.693534 -1.303924 97 76 48 -0.067191 0.892680 0.445654 0.000000 
0.312472 -0.450686 -1.925192 98 87 66 -0.174088 -0.958151 -0.227245 0.000000 
0.526673 -0.598467 -1.502080 97 88 78 -0.341498 0.829352 0.442216 0.000000 
0.594239 -0.649903 -1.415949 105 87 63 0.720180 0.547999 -0.425486 0.000000 
0.437774 -0.548804 -1.627450 86 73 51 -0.427480 0.837736 0.339792 0.000000 
0.404455 -0.534243 -1.689535 104 91 73 -0.744469 0.473753 0.470451 0.000000 
0.354975 -0.505479 -1.788477 87 73 59 -0.925958 -0.084913 0.367957 0.000000 
0.606772 -0.660056 -1.385033 136 117 100 -0.840343 0.087030 0.535023 0.000000 
0.499225 -0.583356 -1.561246 130 124 115 -0.910265 -0.218522 0.351661 0.000000 
0.390156 -0.527652 -1.711351 104 90 71 -0.884250 0.271730 0.379822 0.000000 
0.391382 -0.509321 -1.762910 119 113 101 -0.772448 -0.615850 0.155092 0.000000 
0.370826 -0.501713 -1.766495 98 81 55 -0.374668 0.792753 0.480797 0.000000 
0.433165 -0.550568 -1.631279 70 59 47 -0.495063 0.347666 0.796267 0.000000 
0.375855 -0.509590 -1.747810 85 73 58 0.560861 -0.700660 -0.441033 0.000000 
0.326221 -0.477433 -1.865073 75 63 50 -0.564435 0.510519 0.648679 0.000000 
0.451333 -0.555815 -1.611111 99 84 58 -0.101367 -0.762455 -0.639052 0.000000 
0.486659 -0.598191 -1.563199 67 57 46 0.667816 0.725622 -0.165813 0.000000 
0.315712 -0.464336 -1.895439 117 99 72 0.335852 -0.449380 -0.827805 0.000000 
0.349744 -0.468818 -1.869301 120 118 113 -0.444953 -0.885614 -0.133057 0.000000 
0.565354 -0.621619 -1.454342 128 120 112 0.103405 0.911341 0.398453 0.000000 
0.346617 -0.484910 -1.820375 81 69 57 -0.280031 0.915540 0.288736 0.000000 
0.361609 -0.499853 -1.779707 82 70 56 0.552262 -0.633328 -0.542128 0.000000 
0.503126 -0.591601 -1.528094 84 65 46 -0.875900 0.003987 0.482476 0.000000 
0.545120 -0.611504 -1.482465 115 97 70 0.611130 0.789790 -0.052464 0.000000 
0.438233 -0.563973 -1.616154 128 117 104 0.915151 0.211189 -0.343361 0.000000 
0.515499 -0.598286 -1.514956 76 65 52 0.747504 0.064813 -0.661088 0.000000 
0.528386 -0.599521 -1.501168 101 91 83 -0.195909 0.925985 0.322756 0.000000 
0.386266 -0.525805 -1.713959 111 99 75 0.739011 -0.461262 -0.491020 0.000000 
0.436867 -0.542794 -1.647762 93 79 53 0.109618 0.971447 0.210417 0.000000 
0.461274 -0.566237 -1.591912 98 86 74 -0.615842 0.602344 0.507859 0.000000 
0.655988 -0.684111 -1.323303 99 77 50 0.079106 -0.806885 -0.585387 0.000000 
0.689002 -0.717735 -1.280230 107 80 56 0.669919 0.698426 -0.251813 0.000000 
0.584290 -0.653791 -1.422820 101 84 68 0.604115 0.793529 -0.073183 0.000000 
0.380771 -0.512932 -1.739887 88 76 61 -0.313143 0.759572 0.570081 0.000000 
0.477713 -0.579704 -1.560085 138 118 93 0.450532 -0.389606 -0.803261 0.000000 
0.491428 -0.603241 -1.554517 124 116 104 0.682268 0.718256 -0.136454 0.000000 
0.403521 -0.526262 -1.730457 98 90 69 0.736477 0.673062 -0.067739 0.000000 
0.423012 -0.552153 -1.652058 112 95 73 0.565378 -0.180375 -0.804868 0.000000 
0.466502 -0.562075 -1.594377 105 97 90 -0.247020 -0.942541 -0.224940 0.000000 
0.386113 -0.508904 -1.750359 91 75 48 -0.165308 -0.916964 -0.363112 0.000000 
0.474464 -0.568657 -1.590473 120 99 69 0.740748 0.540368 -0.399117 0.000000 
0.443778 -0.547754 -1.632420 105 89 60 -0.337857 -0.919484 -0.201003 0.000000 
0.534200 -0.609874 -1.482076 90 78 59 0.718098 -0.436166 -0.542305 0.000000 
0.562129 -0.620307 -1.462241 121 118 114 0.226259 -0.756798 -0.613240 0.000000 
0.462118 -0.568925 -1.587043 93 77 60 0.722778 -0.547459 -0.421758 0.000000 
0.334355 -0.480430 -1.839993 102 86 63 -0.654819 0.641556 0.399522 0.000000 
0.423320 -0.556871 -1.642928 131 121 107 -0.900582 -0.214563 0.378040 0.000000 
0.582388 -0.637044 -1.425174 125 116 107 -0.201996 -0.915429 -0.348121 0.000000 
0.711110 -0.718513 -1.264850 110 84 52 0.590919 0.706140 -0.390105 0.000000 
0.719641 -0.724840 -1.244076 126 105 76 -0.001380 0.732842 0.680398 0.000000 
0.408908 -0.544294 -1.678895 94 80 63 0.733714 0.491903 -0.468716 0.000000 
0.577249 -0.632210 -1.431634 119 100 80 0.091100 0.805436 0.585640 0.000000 
0.674641 -0.698635 -1.309259 93 71 45 0.750976 0.481479 -0.451900 0.000000 
0.416817 -0.542528 -1.662221 115 98 76 0.576090 -0.592984 -0.562575 0.000000 
0.309215 -0.451712 -1.918484 102 88 67 -0.173181 0.935177 0.308955 0.000000 
0.437333 -0.562041 -1.632578 90 76 61 -0.789251 -0.510692 0.340995 0.000000 
0.625477 -0.671829 -1.374131 134 116 98 -0.668188 -0.733668 0.123518 0.000000 
0.700107 -0.716175 -1.266952 106 95 84 0.639353 -0.464831 -0.612503 0.000000 
0.492340 -0.576054 -1.562166 119 112 105 -0.499184 -0.865709 0.036926 0.000000 
0.556366 -0.628755 -1.452494 148 132 114 0.778829 0.006892 -0.627199 0.000000 
0.307214 -0.459777 -1.912730 91 78 67 0.181776 -0.246407 -0.951967 0.000000 
0.400732 -0.532928 -1.693337 101 86 69 -0.603203 0.354729 0.714362 0.000000 
0.367944 -0.492728 -1.810487 105 94 73 0.420141 0.898282 0.128730 0.000000 
0.408196 -0.539070 -1.677225 136 118 89 0.598970 -0.598970 -0.531480 0.000000 
0.674051 -0.696430 -1.309153 108 82 52 0.651206 0.654504 -0.384129 0.000000 
0.341043 -0.466312 -1.873333 102 95 87 0.082315 0.947277 0.309662 0.000000 
0.393586 -0.508959 -1.750811 90 80 58 -0.470583 -0.873940 -0.121579 0.000000 
0.372003 -0.501483 -1.766950 80 67 51 0.143594 -0.871719 -0.468494 0.000000 
0.547622 -0.623021 -1.465320 151 133 112 -0.829448 0.393395 0.396555 0.000000 
0.569618 -0.630871 -1.439412 148 130 108 0.112507 -0.810930 -0.574226 0.000000 
0.375258 -0.508016 -1.756231 99 83 58 -0.209299 0.877273 0.431957 0.000000 
0.666575 -0.693033 -1.307863 109 84 53 0.072642 -0.897746 -0.434482 0.000000 
0.415863 -0.527742 -1.690580 110 103 94 -0.081210 -0.987464 -0.135350 0.000000 
0.483243 -0.576107 -1.558860 110 90 60 0.220232 -0.885364 -0.409425 0.000000 
0.474703 -0.585136 -1.588198 102 85 60 0.683825 0.546726 -0.483192 0.000000 
0.582071 -0.651185 -1.418957 135 118 103 0.899143 0.211306 -0.383265 0.000000 
0.481819 -0.577274 -1.560617 135 115 91 -0.328532 0.811014 0.484069 0.000000 
0.613430 -0.669535 -1.381224 93 73 53 0.625770 0.770748 -0.119828 0.000000 
0.310138 -0.448649 -1.924885 90 80 69 -0.051933 -0.977062 -0.206524 0.000000 
0.383656 -0.512636 -1.738283 98 80 50 0.181898 -0.909489 -0.373822 0.000000 
0.655701 -0.686746 -1.318960 96 77 53 0.525710 -0.532429 -0.663437 0.000000 
0.489168 -0.595441 -1.559407 66 54 39 0.560658 0.641473 -0.523617 0.000000 
0.389309 -0.527760 -1.714176 93 81 66 -0.885870 0.120865 0.447912 0.000000 
0.605725 -0.650791 -1.395936 117 108 99 0.133579 -0.987064 -0.088658 0.000000 
0.290764 -0.436090 -1.967849 89 80 61 0.484069 -0.811014 -0.328532 0.000000 
0.553819 -0.618970 -1.465774 139 122 102 0.479609 -0.807846 -0.342578 0.000000 
0.392871 -0.510886 -1.741605 91 84 75 0.393407 0.873393 0.287081 0.000000 
0.394379 -0.511373 -1.749273 102 95 80 -0.611600 -0.782554 -0.116425 0.000000 
0.527095 -0.597939 -1.505245 104 87 61 -0.344587 -0.924944 -0.160435 0.000000 
0.513594 -0.601843 -1.517609 84 74 66 -0.899859 -0.101530 0.424199 0.000000 
0.530822 -0.614461 -1.488624 110 97 86 -0.759291 -0.070598 0.646910 0.000000 
0.368736 -0.497863 -1.775755 94 78 54 0.112186 -0.933979 -0.339260 0.000000 
0.395803 -0.532888 -1.700613 98 86 71 -0.731408 -0.052959 0.679880 0.000000 
0.456357 -0.580985 -1.599166 91 77 62 -0.739885 -0.367493 0.563489 0.000000 
0.530259 -0.616350 -1.491606 100 75 53 -0.885364 -0.220232 0.409425 0.000000 
0.404445 -0.536826 -1.685731 99 86 69 0.906438 -0.361125 -0.218995 0.000000 
0.592749 -0.649743 -1.404667 108 98 91 0.356478 -0.481165 -0.800877 0.000000 
0.402191 -0.543544 -1.700802 99 88 74 0.878855 0.393450 -0.269837 0.000000 
0.551674 -0.612743 -1.470659 115 95 74 0.038181 0.742401 0.668868 0.000000 
0.660025 -0.695149 -1.330866 90 73 51 0.879784 0.112283 -0.461922 0.000000 
0.594231 -0.656479 -1.405161 93 76 58 -0.880162 -0.047909 0.472249 0.000000 
0.607210 -0.648525 -1.395353 113 95 77 -0.023150 0.993263 0.113547 0.000000 
0.412315 -0.546960 -1.674421 90 75 59 -0.861656 -0.464428 0.204587 0.000000 
0.690177 -0.708541 -1.277113 116 91 61 0.206108 -0.658616 -0.723702 0.000000 
0.327659 -0.482202 -1.857264 76 63 52 0.852299 -0.446881 -0.271814 0.000000 
0.451140 -0.552743 -1.624486 116 95 63 0.650591 0.758315 0.041105 0.000000 
0.415427 -0.530947 -1.699662 100 84 59 0.588080 0.792630 -0.160932 0.000000 
0.483796 -0.586733 -1.555460 91 80 69 0.893975 0.387340 -0.225335 0.000000 
0.345056 -0.491750 -1.816894 82 70 56 0.876005 -0.164706 -0.453307 0.000000 
0.421876 -0.554855 -1.651583 91 76 59 0.369361 -0.501621 -0.782271 0.000000 
0.540892 -0.615814 -1.476615 149 133 115 -0.607157 0.293166 0.738521 0.000000 
0.703086 -0.711356 -1.266941 119 92 57 -0.238131 0.792213 0.561864 0.000000 
0.620971 -0.668366 -1.363353 141 121 102 -0.681559 -0.142932 0.717668 0.000000 
0.458967 -0.563389 -1.595526 110 91 62 -0.517441 0.681549 0.517441 0.000000 
0.355854 -0.487093 -1.809295 100 85 64 -0.187129 0.982137 0.019759 0.000000 
0.420379 -0.538360 -1.666339 116 94 60 -0.220025 0.901958 0.371566 0.000000 
0.437200 -0.544109 -1.657183 106 92 65 0.264392 0.956285 0.124962 0.000000 
0.337630 -0.486387 -1.837790 76 62 48 -0.752337 0.113811 0.648872 0.000000 
0.687604 -0.703817 -1.289742 126 104 81 0.551052 0.740731 -0.384265 0.000000 
0.403033 -0.532200 -1.692173 101 88 72 0.564145 -0.377732 -0.734206 0.000000 
0.584872 -0.644671 -1.415720 115 91 69 0.581852 -0.481244 -0.655632 0.000000 
0.579686 -0.636865 -1.428684 150 133 110 0.332896 0.904833 0.265437 0.000000 
0.641258 -0.674252 -1.347064 94 75 49 0.641232 0.651174 0.405948 0.000000 
0.587761 -0.642356 -1.423567 106 88 64 -0.694788 -0.715095 0.076876 0.000000 
0.459630 -0.559160 -1.609413 121 101 74 0.373255 0.906477 0.197436 0.000000 
0.451420 -0.570457 -1.599545 134 117 96 0.600814 -0.085417 -0.794812 0.000000 
0.398489 -0.517471 -1.722042 89 82 69 -0.276063 -0.879478 -0.387695 0.000000 
0.425686 -0.537780 -1.674666 98 82 54 0.495259 0.848374 0.187031 0.000000 
0.330629 -0.462329 -1.893004 100 90 72 0.054446 0.922921 0.381120 0.000000 
0.427212 -0.552987 -1.649880 99 84 67 -0.781030 0.276122 0.560133 0.000000 
0.392238 -0.526379 -1.709785 100 87 71 0.709967 -0.622236 -0.329802 0.000000 
0.581017 -0.653222 -1.434963 86 75 58 0.482601 0.870380 0.097652 0.000000 
0.347117 -0.475196 -1.847805 78 66 54 -0.108740 -0.981100 -0.160055 0.000000 
0.451806 -0.556276 -1.610861 86 76 66 0.075524 0.830768 0.551471 0.000000 
0.575983 -0.632463 -1.435415 146 129 107 0.006704 0.867480 0.497427 0.000000 
0.430563 -0.544106 -1.645914 89 77 61 0.583980 -0.715581 -0.383288 0.000000 
0.546811 -0.615984 -1.473287 120 111 100 -0.301086 0.853848 0.424608 0.000000 
0.553819 -0.618970 -1.465774 139 122 102 -0.479609 0.807846 0.342578 0.000000 
0.355882 -0.479307 -1.849635 100 93 80 0.620749 0.761759 0.185458 0.000000 
0.520780 -0.606759 -1.502463 115 104 94 -0.771066 -0.139241 0.621345 0.000000 
0.550248 -0.632799 -1.471046 99 76 55 -0.898522 -0.424730 -0.110738 0.000000 
0.352069 -0.504078 -1.798794 83 73 62 0.937787 -0.149225 -0.313508 0.000000 
0.454744 -0.585998 -1.617790 118 102 85 0.406507 0.848837 0.337977 0.000000 
0.539995 -0.612293 -1.492074 101 85 61 0.992015 0.118231 -0.043914 0.000000 
0.438481 -0.549447 -1.628751 70 60 50 -0.430746 0.828357 0.358166 0.000000 
0.642669 -0.679899 -1.351257 93 74 48 -0.987153 0.103100 0.122061 0.000000 
0.419819 -0.536561 -1.694468 104 90 66 -0.717503 -0.691199 0.086217 0.000000 
0.437749 -0.567215 -1.634941 97 85 71 0.946096 0.099241 -0.308308 0.000000 
0.366863 -0.489827 -1.813877 100 90 74 0.391512 0.869858 0.300109 0.000000 
0.453408 -0.580163 -1.601534 93 82 70 0.786761 0.506809 -0.352353 0.000000 
0.295629 -0.443421 -1.939349 91 81 70 0.475818 -0.869199 -0.134502 0.000000 
0.377941 -0.501026 -1.772658 102 83 56 0.271813 0.926442 0.260428 0.000000 
0.290594 -0.464718 -1.936445 130 121 106 -0.963621 0.006045 0.267202 0.000000 
0.412022 -0.546964 -1.672953 90 76 60 0.877288 0.428995 -0.215240 0.000000 
0.350363 -0.489801 -1.804240 110 96 72 -0.658695 0.690905 0.297943 0.000000 
0.474209 -0.584166 -1.561565 143 128 110 0.683258 0.373734 -0.627281 0.000000 
0.520007 -0.605829 -1.501786 142 126 108 0.749110 0.044065 -0.660979 0.000000 
0.499290 -0.584017 -1.544381 116 94 64 0.299683 0.921992 0.245195 0.000000 
0.379462 -0.512511 -1.742388 94 79 60 -0.299454 0.741429 0.600509 0.000000 
0.303828 -0.456866 -1.913310 114 98 75 0.315103 -0.366859 -0.875286 0.000000 
0.680240 -0.712061 -1.292843 95 70 46 -0.461214 -0.857405 0.228339 0.000000 
0.715162 -0.727693 -1.245239 109 92 67 -0.375356 -0.323266 0.868681 0.000000 
0.528130 -0.600810 -1.508832 98 84 60 -0.714841 -0.627704 0.308204 0.000000 
0.613284 -0.657707 -1.390574 102 81 57 -0.486210 -0.794303 0.364256 0.000000 
0.443743 -0.549275 -1.653609 138 128 115 0.747110 0.636199 -0.192554 0.000000 
0.332213 -0.467372 -1.877849 92 78 54 -0.014401 0.907290 0.420260 0.000000 
0.371435 -0.501033 -1.766174 79 67 52 -0.268840 0.822060 0.501938 0.000000 
0.685388 -0.699888 -1.289237 110 101 88 -0.225324 -0.974020 0.022652 0.000000 
0.653891 -0.681125 -1.334509 129 115 98 -0.700717 -0.703692 0.117530 0.000000 
0.500690 -0.585770 -1.534836 144 122 97 0.407117 -0.825323 -0.391276 0.000000 
0.652909 -0.681839 -1.334810 99 75 45 -0.681717 -0.730107 0.046966 0.000000 
0.642375 -0.671837 -1.349246 120 111 101 -0.742401 -0.668868 -0.038181 0.000000 
0.339285 -0.466930 -1.872530 97 91 83 0.039057 -0.895622 -0.443097 0.000000 
0.343178 -0.494417 -1.820577 83 71 58 0.925631 0.081950 -0.369447 0.000000 
0.512891 -0.590518 -1.533017 104 85 59 -0.698284 -0.619788 0.358136 0.000000 
0.411599 -0.529260 -1.699451 99 82 56 0.339114 0.932904 0.121209 0.000000 
0.399683 -0.521961 -1.715969 104 88 62 -0.129259 -0.950120 -0.283837 0.000000 
0.327529 -0.484230 -1.856315 77 65 50 0.878012 -0.371525 -0.301769 0.000000 
0.530985 -0.602977 -1.495460 106 94 80 0.413791 -0.552271 -0.723722 0.000000 
0.448584 -0.560427 -1.608816 108 90 69 0.499729 -0.617510 -0.607414 0.000000 
0.654513 -0.694723 -1.325356 97 71 47 0.722200 0.632921 0.278995 0.000000 
0.474957 -0.584451 -1.567885 80 65 49 -0.816891 -0.486357 0.310072 0.000000 
0.289718 -0.446808 -1.951579 113 97 74 -0.738446 0.444389 0.507165 0.000000 
0.501435 -0.593147 -1.530201 122 104 85 -0.694354 -0.493577 0.523693 0.000000 
0.351389 -0.479372 -1.841455 96 82 61 0.394280 0.812503 0.429398 0.000000 
0.454651 -0.559298 -1.604433 96 85 73 -0.162119 0.837365 0.522052 0.000000 
0.434607 -0.543836 -1.645095 79 70 59 0.181572 -0.893334 -0.411079 0.000000 
0.352738 -0.476851 -1.849731 91 82 67 0.420521 0.906456 0.038715 0.000000 
0.652041 -0.674880 -1.331485 114 96 77 -0.313909 -0.897096 -0.310934 0.000000 
0.513663 -0.609068 -1.518915 93 83 74 0.969491 -0.147281 -0.195947 0.000000 
0.387527 -0.515953 -1.732301 110 92 63 0.073094 -0.889538 -0.450975 0.000000 
0.436481 -0.565846 -1.641528 89 77 64 0.639110 0.743832 -0.195583 0.000000 
0.554837 -0.620318 -1.464257 125 104 79 -0.557468 0.674654 0.483809 0.000000 
0.707459 -0.717786 -1.259101 113 87 54 0.403912 -0.760402 -0.508570 0.000000 
0.616084 -0.658635 -1.373877 106 84 58 0.374018 -0.650824 -0.660710 0.000000 
0.331024 -0.459840 -1.901539 112 106 94 0.324977 0.936858 0.129175 0.000000 
0.356132 -0.477289 -1.844415 96 91 85 -0.546309 -0.796766 -0.258284 0.000000 
0.494793 -0.593132 -1.560799 85 72 50 -0.446106 0.257310 0.857194 0.000000 
0.652158 -0.682564 -1.338310 99 75 46 -0.727477 -0.608113 0.317767 0.000000 
0.341987 -0.470393 -1.870392 103 94 79 -0.268638 -0.883955 -0.382697 0.000000 
0.422895 -0.536696 -1.672095 103 84 54 -0.146916 -0.935042 -0.322665 0.000000 
0.354818 -0.492860 -1.794055 109 93 67 0.384921 -0.642636 -0.662461 0.000000 
0.559708 -0.622830 -1.459517 105 87 62 -0.104289 -0.949158 -0.297024 0.000000 
0.466768 -0.563384 -1.594012 126 106 79 0.426455 0.880946 0.205111 0.000000 
0.454324 -0.579530 -1.598006 95 85 74 0.741037 0.327735 -0.586049 0.000000 
0.616224 -0.657154 -1.379997 102 82 56 -0.352628 -0.871648 -0.340416 0.000000 
0.443490 -0.545630 -1.629163 99 88 73 -0.184803 -0.958584 -0.216712 0.000000 
0.632931 -0.672018 -1.348725 93 79 57 0.698335 -0.416347 -0.582222 0.000000 
0.300723 -0.443229 -1.949636 99 89 68 0.287016 0.950989 0.115071 0.000000 
0.354647 -0.485922 -1.809529 81 71 60 -0.358605 0.917065 0.174342 0.000000 
0.623078 -0.669810 -1.376718 110 90 65 0.740707 0.603124 0.295963 0.000000 
0.574962 -0.641293 -1.426883 104 93 85 0.779928 -0.001376 -0.625868 0.000000 
0.439019 -0.551201 -1.625215 65 55 43 0.511983 -0.708772 -0.485300 0.000000 
0.391985 -0.512304 -1.741257 96 83 59 0.281075 0.893788 0.349485 0.000000 
0.449249 -0.559463 -1.634572 111 93 63 -0.765970 0.043891 0.641376 0.000000 
0.567126 -0.628592 -1.441237 120 98 69 0.176310 -0.812231 -0.556054 0.000000 
0.594755 -0.648263 -1.407464 142 119 92 0.318695 0.934012 0.161417 0.000000 
0.380953 -0.502871 -1.782344 105 93 72 -0.695272 -0.704321 0.143277 0.000000 
0.591916 -0.645407 -1.414338 145 130 109 0.647941 0.760872 0.035291 0.000000 
0.628652 -0.681259 -1.356729 138 123 108 0.772706 0.544589 -0.326111 0.000000 
0.389636 -0.533208 -1.703844 137 126 107 0.875526 0.250794 -0.412984 0.000000 
0.483257 -0.588428 -1.557448 81 69 57 -0.810054 -0.554727 0.189975 0.000000 
0.531231 -0.604117 -1.494115 124 106 85 0.513538 -0.437580 -0.738107 0.000000 
0.532931 -0.598863 -1.496761 108 95 79 0.200566 -0.499154 -0.842982 0.000000 
0.474059 -0.565007 -1.581856 111 97 82 0.080767 -0.938755 -0.334986 0.000000 
0.523644 -0.595030 -1.512603 127 109 90 0.224743 0.894564 0.386323 0.000000 
0.441199 -0.569816 -1.625400 86 72 56 -0.949360 -0.230189 0.213844 0.000000 
0.438102 -0.540607 -1.657784 110 105 100 0.226320 0.923783 0.308877 0.000000 
0.566846 -0.637906 -1.439456 90 76 62 -0.758817 -0.159033 0.631590 0.000000 
0.502702 -0.586529 -1.548115 133 116 97 -0.784202 -0.539238 0.307000 0.000000 
0.498767 -0.601034 -1.543107 81 65 47 -0.804610 -0.345744 0.482766 0.000000 
0.472687 -0.564485 -1.583476 112 99 83 -0.046868 -0.977026 -0.207903 0.000000 
0.451380 -0.572912 -1.592329 92 80 61 0.769114 0.178191 -0.613768 0.000000 
0.434231 -0.551137 -1.630894 74 63 51 0.738617 -0.244106 -0.628376 0.000000 
0.631736 -0.676878 -1.352257 98 73 50 0.718379 0.117499 -0.685658 0.000000 
0.432526 -0.542436 -1.650580 95 81 62 0.139374 -0.943144 -0.301752 0.000000 
0.403058 -0.522215 -1.716131 101 87 64 0.221890 0.944064 0.243941 0.000000 
0.458500 -0.561680 -1.619636 110 93 62 0.809084 0.437386 -0.392526 0.000000 
0.485729 -0.573488 -1.568727 124 111 96 -0.394799 -0.909021 -0.133473 0.000000 
0.492791 -0.589512 -1.544955 93 73 54 -0.771065 -0.249693 0.585758 0.000000 
0.577126 -0.631332 -1.437512 137 117 93 0.389100 0.876610 0.283119 0.000000 
0.360098 -0.491415 -1.798925 89 73 45 0.355574 0.886685 0.295562 0.000000 
0.673902 -0.699208 -1.297549 95 80 61 0.233777 -0.707607 -0.666814 0.000000 
0.562497 -0.627565 -1.448026 113 98 84 -0.538358 0.609239 0.582236 0.000000 
0.580111 -0.630149 -1.444734 123 120 117 0.731106 0.560241 -0.389376 0.000000 
0.401671 -0.541101 -1.689520 88 74 57 -0.895011 0.081616 0.438514 0.000000 
0.468685 -0.577086 -1.569168 120 101 77 -0.869608 0.296976 0.394446 0.000000 
0.396172 -0.525591 -1.702525 118 99 67 -0.230085 0.867706 0.440620 0.000000 
0.688155 -0.706605 -1.280444 128 105 83 0.035282 -0.667534 -0.743743 0.000000 
0.680841 -0.703173 -1.284880 90 75 53 -0.706239 0.405219 0.580538 0.000000 
0.421278 -0.556015 -1.649913 133 120 103 0.386470 -0.573949 -0.721958 0.000000 
0.502117 -0.607372 -1.539670 104 92 83 0.679749 0.518624 -0.518624 0.000000 
0.443529 -0.551336 -1.648765 106 91 66 -0.881309 -0.340128 0.328035 0.000000 
0.339831 -0.479880 -1.836163 76 64 50 0.672491 -0.642895 -0.366664 0.000000 
0.307079 -0.451358 -1.921443 100 85 63 0.183535 -0.939752 -0.288411 0.000000 
0.531317 -0.603813 -1.495170 103 94 86 -0.442303 0.538384 0.717294 0.000000 
0.487307 -0.574385 -1.573433 128 120 109 0.794526 0.582652 -0.171012 0.000000 
0.394447 -0.514009 -1.743157 103 91 70 -0.466029 -0.872534 -0.146632 0.000000 
0.628985 -0.668580 -1.355705 100 78 58 0.651206 -0.654504 -0.384129 0.000000 
0.530801 -0.599039 -1.507235 124 117 109 0.644585 0.723386 -0.247433 0.000000 
0.395791 -0.512782 -1.751889 112 107 94 0.704461 0.701507 -0.107811 0.000000 
0.362435 -0.510285 -1.772967 115 99 75 0.893260 -0.090298 -0.440378 0.000000 
0.328336 -0.483397 -1.853718 75 63 51 0.773535 -0.464121 -0.431551 0.000000 
0.428560 -0.534501 -1.676704 117 112 104 0.255114 0.898059 0.358339 0.000000 
0.522435 -0.594427 -1.515351 108 88 60 -0.610068 -0.780111 -0.138720 0.000000 
0.502200 -0.584514 -1.536934 108 98 89 -0.065676 0.951660 0.300050 0.000000 
0.619880 -0.661690 -1.378539 99 78 53 -0.808817 -0.498586 0.311814 0.000000 
0.339095 -0.480506 -1.835324 75 62 49 0.807098 -0.468276 -0.359598 0.000000 
0.516260 -0.599094 -1.532721 138 124 109 -0.643994 -0.049757 0.763410 0.000000 
0.420241 -0.533424 -1.684492 95 79 52 -0.495219 -0.865581 0.074353 0.000000 
0.492547 -0.579001 -1.564481 141 130 115 0.600167 0.765408 -0.232272 0.000000 
0.509095 -0.588498 -1.535762 122 99 69 0.574134 0.759648 -0.305458 0.000000 
0.469225 -0.584904 -1.596582 105 87 61 0.654287 0.644348 -0.395885 0.000000 
0.300106 -0.448683 -1.931452 90 80 69 -0.470590 0.564374 0.678253 0.000000 
0.362332 -0.483188 -1.830934 90 84 76 -0.019868 0.980566 0.195178 0.000000 
0.461908 -0.565721 -1.586851 101 85 60 0.692403 -0.562264 -0.452147 0.000000 
0.477346 -0.569527 -1.579983 128 110 87 -0.321546 -0.924975 0.202560 0.000000 
0.453454 -0.576821 -1.597746 104 93 80 0.806862 0.183171 -0.561624 0.000000 
0.378794 -0.513422 -1.740580 110 92 62 -0.373216 0.652718 0.659294 0.000000 
0.362956 -0.488801 -1.804772 94 83 65 -0.398886 -0.902140 -0.164415 0.000000 
0.484461 -0.572692 -1.569093 109 89 58 0.348184 0.907609 0.234551 0.000000 
0.637724 -0.682949 -1.345005 94 74 54 0.929995 0.180405 -0.320254 0.000000 
0.374131 -0.508001 -1.754730 86 74 59 -0.384119 0.859254 0.337839 0.000000 
0.517629 -0.609366 -1.516199 92 70 50 -0.535491 -0.748377 0.391383 0.000000 
0.637329 -0.677536 -1.342842 104 80 60 0.847621 -0.107931 -0.519509 0.000000 
0.513672 -0.596853 -1.516951 77 59 41 -0.759571 -0.226156 0.609840 0.000000 
0.518999 -0.592362 -1.517113 107 86 57 0.555647 0.828497 0.069634 0.000000 
0.335123 -0.466456 -1.879830 93 83 65 0.043095 -0.838268 -0.543553 0.000000 
0.477535 -0.568221 -1.579520 108 88 58 -0.087390 -0.966356 -0.241906 0.000000 
0.501659 -0.603488 -1.550328 80 70 53 -0.263526 -0.963788 0.040828 0.000000 
0.550156 -0.607903 -1.477467 114 97 79 -0.220301 0.657778 0.720275 0.000000 
0.310765 -0.455090 -1.911506 93 81 69 -0.532908 0.382977 0.754545 0.000000 
0.629343 -0.671194 -1.368413 93 75 51 0.542518 0.623643 -0.562800 0.000000 
0.349824 -0.486112 -1.815127 98 82 55 -0.128032 0.926513 0.353810 0.000000 
0.412662 -0.550086 -1.674291 91 81 66 -0.849033 -0.508833 0.142239 0.000000 
0.362297 -0.496683 -1.783927 84 69 52 0.432491 -0.831955 -0.347566 0.000000 
0.445131 -0.547222 -1.636957 99 86 61 0.418310 0.900001 0.122535 0.000000 
0.511300 -0.594320 -1.520828 73 60 44 -0.817758 -0.001361 0.575560 0.000000 
0.662131 -0.691383 -1.310879 99 80 55 -0.504260 0.622315 0.598704 0.000000 
0.570281 -0.640849 -1.437378 87 77 69 -0.708384 -0.114351 0.696503 0.000000 
0.355275 -0.509084 -1.791893 88 78 65 0.938818 0.131407 -0.318358 0.000000 
0.429038 -0.540233 -1.672889 115 99 76 -0.573161 -0.819387 0.009575 0.000000 
0.324551 -0.478042 -1.866592 85 70 56 -0.600188 0.446379 0.663717 0.000000 
0.363133 -0.492058 -1.798562 90 75 50 0.360028 0.905172 0.225929 0.000000 
0.402692 -0.520675 -1.729067 92 81 57 0.769944 0.636164 0.049812 0.000000 
0.497047 -0.591684 -1.539404 96 83 71 0.836032 0.330962 -0.437623 0.000000 
0.415549 -0.546734 -1.662683 100 86 68 -0.872476 0.199973 0.445866 0.000000 
0.626320 -0.670373 -1.362300 90 73 55 0.862728 0.034181 -0.504511 0.000000 
0.548514 -0.628511 -1.481831 84 73 57 -0.815840 0.310871 0.487610 0.000000 
0.513124 -0.590969 -1.516721 92 73 54 0.292900 -0.875664 -0.383957 0.000000 
0.546226 -0.610182 -1.479482 122 115 108 -0.272984 -0.917168 -0.290316 0.000000 
0.620602 -0.659185 -1.371135 111 100 88 -0.105281 -0.843690 -0.526405 0.000000 
0.436269 -0.543046 -1.648145 108 91 67 -0.109618 -0.971447 -0.210417 0.000000 
0.540787 -0.605456 -1.489466 127 114 95 -0.361048 0.730264 0.579964 0.000000 
0.462947 -0.565821 -1.590481 97 86 75 -0.653326 0.656617 0.376855 0.000000 
0.624708 -0.665317 -1.363205 85 71 54 0.044054 -0.751758 -0.657966 0.000000 
0.567952 -0.629121 -1.441001 142 128 114 0.081574 -0.828616 -0.553842 0.000000 
0.383979 -0.523050 -1.723417 118 102 76 0.669761 -0.413823 -0.616579 0.000000 
0.308815 -0.447605 -1.926752 92 84 76 -0.020770 0.963990 0.265128 0.000000 
0.462095 -0.568363 -1.588192 128 109 85 -0.761347 0.460083 0.456808 0.000000 
0.705037 -0.720471 -1.262055 144 126 103 -0.307135 0.364628 0.879042 0.000000 
0.567549 -0.644714 -1.439955 115 105 97 0.737941 0.399376 -0.544006 0.000000 
0.371498 -0.490256 -1.794259 106 102 94 -0.185718 -0.977787 -0.097164 0.000000 
0.421334 -0.540147 -1.662829 118 96 62 0.381484 -0.774331 -0.504857 0.000000 
0.368745 -0.509720 -1.753951 103 93 71 -0.612913 0.707710 0.351403 0.000000 
0.407091 -0.546503 -1.690555 89 74 57 0.766646 0.587185 -0.259747 0.000000 
0.366060 -0.494630 -1.787648 92 76 50 0.118998 -0.980201 -0.158255 0.000000 
0.585828 -0.641396 -1.417536 151 136 118 -0.407432 0.714242 0.569085 0.000000 
0.474571 -0.596265 -1.579623 123 115 108 -0.609214 -0.719684 0.333037 0.000000 
0.561391 -0.626705 -1.449626 120 111 103 -0.462354 0.565841 0.682681 0.000000 
0.481042 -0.589802 -1.582524 136 123 104 -0.778622 -0.623185 0.073401 0.000000 
0.700205 -0.714571 -1.263209 101 76 47 0.458077 -0.554690 -0.694611 0.000000 
0.369115 -0.521863 -1.762601 113 104 93 -0.919289 0.038249 0.391720 0.000000 
0.699057 -0.705693 -1.275493 111 94 74 -0.393534 -0.865162 -0.310846 0.000000 
0.370478 -0.492118 -1.807484 108 98 82 -0.431779 -0.898045 -0.084149 0.000000 
0.537289 -0.604804 -1.488024 105 89 64 0.270430 -0.860182 -0.432383 0.000000 
0.295564 -0.441064 -1.950399 91 82 72 -0.303114 0.788731 0.534814 0.000000 
0.653458 -0.682055 -1.337756 128 112 94 0.753444 0.583879 -0.302337 0.000000 
0.454079 -0.576549 -1.598464 85 66 48 0.754183 0.178985 -0.631801 0.000000 
0.451856 -0.560454 -1.606157 117 99 76 0.361479 -0.760240 -0.539786 0.000000 
0.538826 -0.606219 -1.487337 112 104 96 0.165466 -0.830309 -0.532173 0.000000 
0.438161 -0.547308 -1.631022 82 70 53 -0.212090 0.931228 0.296364 0.000000 
0.536530 -0.614712 -1.484861 108 84 63 -0.783734 0.046769 0.619334 0.000000 
0.530332 -0.611947 -1.491574 102 85 67 -0.816244 0.209020 0.538569 0.000000 
0.537264 -0.617196 -1.475711 91 78 60 0.848958 -0.095919 -0.519682 0.000000 
0.471215 -0.565127 -1.587200 119 106 90 0.189940 0.879026 0.437305 0.000000 
0.527941 -0.605313 -1.496042 109 86 65 -0.657231 0.297281 0.692583 0.000000 
0.567938 -0.641016 -1.454770 109 95 75 0.529077 -0.232917 -0.815982 0.000000 
0.647724 -0.679681 -1.329832 99 81 56 -0.261789 0.849666 0.457748 0.000000 
0.351192 -0.486325 -1.819239 94 77 50 -0.092202 -0.977338 -0.190550 0.000000 
0.596916 -0.649675 -1.411846 144 129 114 0.759039 0.598078 -0.257221 0.000000 
0.500111 -0.595082 -1.537044 91 76 61 0.766917 0.361570 -0.530194 0.000000 
0.428746 -0.557078 -1.668569 90 77 54 -0.442434 -0.812992 -0.378545 0.000000 
0.579607 -0.637989 -1.439297 99 83 59 0.867414 0.274959 -0.414718 0.000000 
0.323014 -0.483017 -1.860973 122 110 94 -0.871705 0.312959 0.377077 0.000000 
0.583237 -0.643562 -1.413748 99 84 64 -0.557819 0.487463 0.671728 0.000000 
0.473951 -0.565931 -1.586891 110 101 93 -0.227117 -0.966208 0.121899 0.000000 
0.570039 -0.637255 -1.452938 137 122 104 -0.594028 0.034943 0.803685 0.000000 
0.472050 -0.566636 -1.585053 121 108 91 -0.001144 0.982468 0.186429 0.000000 
0.520784 -0.593173 -1.514182 101 82 55 -0.108035 -0.702968 -0.702968 0.000000 
0.322542 -0.466831 -1.879803 106 90 65 -0.113617 0.855724 0.504805 0.000000 
0.688173 -0.709158 -1.277791 134 113 93 -0.438039 0.530606 0.725658 0.000000 
0.384399 -0.515455 -1.730786 99 83 55 0.254721 -0.889288 -0.379847 0.000000 
0.723371 -0.722933 -1.245303 96 81 58 -0.595217 -0.800760 -0.067087 0.000000 
0.443206 -0.549070 -1.626566 85 74 60 -0.013949 0.937121 0.348726 0.000000 
0.525510 -0.601549 -1.500127 99 88 79 0.574235 -0.463741 -0.674684 0.000000 
0.315561 -0.453692 -1.907250 108 94 69 0.155400 -0.969644 -0.188792 0.000000 
0.339038 -0.468554 -1.874582 106 98 84 0.030763 -0.894805 -0.445396 0.000000 
0.396977 -0.523911 -1.707993 99 86 70 0.034566 -0.940976 -0.336703 0.000000 
0.511728 -0.596890 -1.519091 71 61 49 0.855022 0.313869 -0.412823 0.000000 
0.544443 -0.606327 -1.484318 122 117 111 0.111135 -0.724602 -0.680148 0.000000 
0.574312 -0.627023 -1.443462 124 120 115 -0.302117 -0.926209 -0.225524 0.000000 
0.418938 -0.529036 -1.697799 116 110 103 -0.636150 -0.716270 0.286828 0.000000 
0.571166 -0.627997 -1.446504 106 88 63 0.503958 0.860518 -0.074400 0.000000 
0.412988 -0.538901 -1.672922 98 85 69 -0.459141 0.797455 0.391478 0.000000 
0.600543 -0.654318 -1.396710 98 88 80 -0.697859 0.287165 0.656148 0.000000 
0.408149 -0.525403 -1.701452 101 91 76 0.404593 0.882342 0.240367 0.000000 
0.547412 -0.616599 -1.472039 145 129 108 -0.353258 0.772650 0.527467 0.000000 
0.442587 -0.567122 -1.645043 92 78 55 -0.755692 -0.638507 0.145730 0.000000 
0.498890 -0.585900 -1.534383 99 82 63 -0.510298 0.772736 0.377458 0.000000 
0.464112 -0.580777 -1.579024 136 121 107 -0.652226 -0.544365 0.527511 0.000000 
0.539022 -0.600545 -1.492142 115 102 85 -0.358224 0.695184 0.623212 0.000000 
0.444257 -0.573935 -1.619052 90 79 66 0.825648 0.460790 -0.325541 0.000000 
0.521975 -0.594753 -1.508180 99 85 68 0.398000 -0.810385 -0.429968 0.000000 
0.440616 -0.542182 -1.641216 101 92 76 0.279945 0.957438 0.070306 0.000000 
0.515352 -0.611672 -1.519458 100 91 83 -0.553553 -0.832401 0.026228 0.000000 
0.468899 -0.564830 -1.588433 128 108 83 0.082154 0.925245 0.370367 0.000000 
0.581893 -0.637245 -1.425010 124 116 109 0.201996 0.915429 0.348121 0.000000 
0.689815 -0.713908 -1.291368 89 70 46 0.635807 -0.511006 -0.578466 0.000000 
0.721955 -0.724006 -1.249946 108 85 54 -0.824190 -0.533833 0.189034 0.000000 
0.487742 -0.577414 -1.577834 131 123 112 0.869568 0.307176 -0.386645 0.000000 
0.518123 -0.605726 -1.526978 102 84 58 -0.390168 0.804420 0.447970 0.000000 
0.478399 -0.585508 -1.563799 84 64 44 -0.691818 -0.461767 0.555121 0.000000 
0.551845 -0.619035 -1.466715 120 112 105 -0.357073 0.846683 0.394495 0.000000 
0.527941 -0.605313 -1.496042 109 86 65 -0.657231 0.297281 0.692583 0.000000 
0.399364 -0.531519 -1.693904 134 117 89 0.625127 -0.381014 -0.681207 0.000000 
0.435839 -0.562741 -1.617386 76 63 43 -0.784743 -0.262630 0.561430 0.000000 
0.429475 -0.542838 -1.651268 90 79 65 0.458840 -0.772353 -0.439245 0.000000 
0.576716 -0.633603 -1.432702 122 101 71 0.192006 -0.766490 -0.612884 0.000000 
0.536043 -0.624687 -1.493046 105 87 67 0.532563 0.773905 -0.342706 0.000000 
0.375385 -0.497691 -1.781949 98 84 63 0.445043 0.864440 0.233836 0.000000 
0.442777 -0.545023 -1.647353 118 109 98 0.612146 0.781116 -0.123022 0.000000 
0.287768 -0.444153 -1.953175 93 83 69 0.610122 -0.528998 -0.589841 0.000000 
0.695566 -0.719438 -1.284353 98 79 53 0.661557 -0.530256 -0.530256 0.000000 
0.621176 -0.668998 -1.379277 99 80 55 0.487998 0.419449 -0.765454 0.000000 
0.500353 -0.585164 -1.538113 141 120 97 -0.508210 0.852808 0.120175 0.000000 
0.411638 -0.548390 -1.684410 90 76 60 -0.733611 -0.657352 0.172345 0.000000 
0.426378 -0.538780 -1.662099 106 86 55 0.126062 -0.853452 -0.505696 0.000000 
0.531201 -0.608641 -1.492190 105 94 82 0.640526 -0.443184 -0.627147 0.000000 
0.360345 -0.519470 -1.761017 111 105 93 0.917578 -0.074325 -0.390545 0.000000 
0.418296 -0.525536 -1.694544 118 105 89 -0.367109 -0.914230 0.171507 0.000000 
0.304351 -0.442403 -1.949526 103 98 88 0.317437 0.944407 0.085616 0.000000 
0.484224 -0.578365 -1.554720 105 84 65 0.464910 -0.629390 -0.622677 0.000000 
0.426615 -0.542494 -1.654945 94 80 64 0.513511 -0.687469 -0.513511 0.000000 
0.623918 -0.663747 -1.364404 131 110 91 -0.223031 0.807525 0.546041 0.000000 
0.487689 -0.575742 -1.562473 123 109 93 0.066244 0.909842 0.409632 0.000000 
0.506563 -0.587436 -1.526242 132 117 103 -0.325106 0.783136 0.530098 0.000000 
0.449929 -0.552911 -1.618386 107 90 61 -0.243941 -0.944064 -0.221890 0.000000 
0.378068 -0.502016 -1.768610 99 81 55 0.347502 0.893362 0.284862 0.000000 
0.549283 -0.607568 -1.479947 124 117 108 -0.826252 0.012332 0.563166 0.000000 
0.354202 -0.486142 -1.830635 84 67 44 0.001171 -0.975213 -0.221267 0.000000 
0.372773 -0.498668 -1.768015 86 76 63 -0.038520 0.909873 0.413095 0.000000 
0.465463 -0.574937 -1.577567 134 114 93 0.772482 -0.308673 -0.554971 0.000000 
0.678798 -0.701631 -1.308794 141 126 107 -0.894982 -0.227787 0.383564 0.000000 
0.435112 -0.559151 -1.661206 100 87 65 -0.852050 -0.189510 0.487952 0.000000 
0.417464 -0.546951 -1.660536 107 91 70 0.758181 -0.312569 -0.572242 0.000000 
0.563988 -0.636829 -1.444030 95 70 50 0.879886 0.145925 -0.452224 0.000000 
0.508196 -0.610687 -1.541110 86 77 59 0.183968 -0.842065 -0.507034 0.000000 
0.499251 -0.586760 -1.555265 125 109 88 -0.828498 -0.543012 0.136857 0.000000 
0.547900 -0.630262 -1.478874 91 77 58 0.688649 0.511041 0.514392 0.000000 
0.636203 -0.683650 -1.344223 138 119 98 -0.924142 -0.220712 0.311845 0.000000 
0.672250 -0.696245 -1.301196 127 101 75 -0.112009 0.824795 0.554227 0.000000 
0.469293 -0.575200 -1.574762 94 81 68 -0.619292 0.394695 0.678744 0.000000 
0.354445 -0.498915 -1.791103 95 80 62 0.808600 -0.273704 -0.520819 0.000000 
0.439242 -0.555357 -1.620006 78 65 49 0.710751 -0.351291 -0.609449 0.000000 
0.591289 -0.656189 -1.410282 103 79 57 0.820636 0.430159 -0.376191 0.000000 
0.518566 -0.592830 -1.518387 119 96 71 -0.486771 -0.873520 0.004001 0.000000 
0.500709 -0.588639 -1.552674 95 82 59 -0.802401 -0.397181 0.445421 0.000000 
0.385960 -0.510575 -1.744551 89 73 45 -0.185440 -0.921535 -0.341152 0.000000 
0.336841 -0.473894 -1.857174 86 73 60 0.181308 -0.959476 -0.215717 0.000000 
0.676735 -0.703945 -1.291321 136 115 93 0.725821 -0.114291 -0.678323 0.000000 
0.398211 -0.523577 -1.746662 98 92 75 0.827515 0.554075 -0.090667 0.000000 
0.476850 -0.578434 -1.563321 104 90 77 -0.497195 0.493869 0.713366 0.000000 
0.661376 -0.696656 -1.306889 93 77 56 0.725943 -0.424983 -0.540737 0.000000 
0.415079 -0.539916 -1.667054 99 84 66 -0.498281 0.679474 0.538546 0.000000 
0.499271 -0.584356 -1.540177 109 90 62 0.538758 -0.810453 -0.230014 0.000000 
0.625421 -0.669414 -1.363071 90 74 56 -0.643943 -0.067708 0.762071 0.000000 
0.394315 -0.514000 -1.760965 127 122 111 0.840368 0.510812 -0.181256 0.000000 
0.407184 -0.532331 -1.688192 130 112 82 -0.449089 0.820421 0.353876 0.000000 
0.478871 -0.586847 -1.563378 83 61 41 0.631307 0.584169 -0.510096 0.000000 
0.566961 -0.631403 -1.454916 132 119 105 -0.629938 -0.219312 0.745037 0.000000 
0.425454 -0.554211 -1.649825 111 94 73 0.658087 -0.341291 -0.671150 0.000000 
0.617984 -0.660080 -1.370595 106 85 60 -0.325291 0.716935 0.616596 0.000000 
0.545680 -0.612743 -1.475867 104 87 61 0.123610 -0.749107 -0.650814 0.000000 
0.555548 -0.617229 -1.463156 118 103 86 0.441488 -0.753319 -0.487442 0.000000 
0.669004 -0.693802 -1.306007 112 85 55 0.071535 -0.862632 -0.500748 0.000000 
0.413425 -0.554061 -1.652407 136 129 116 0.554247 0.749290 0.362455 0.000000 
0.416913 -0.553002 -1.653189 135 121 100 0.198574 0.532056 0.823095 0.000000 
0.461168 -0.579447 -1.581601 148 134 118 0.767140 0.239048 -0.595275 0.000000 
0.606483 -0.652994 -1.393147 122 100 73 0.112264 -0.910588 -0.397776 0.000000 
0.622928 -0.662653 -1.370584 94 75 51 -0.400624 -0.902472 -0.158253 0.000000 
0.380848 -0.514605 -1.738127 111 93 66 0.390043 -0.800953 -0.454248 0.000000 
0.479731 -0.568326 -1.575926 112 105 99 0.066114 0.947640 0.312423 0.000000 
0.511952 -0.593635 -1.517555 78 62 43 -0.734254 0.044027 0.677445 0.000000 
0.428674 -0.558477 -1.642878 91 76 60 -0.779953 -0.525866 0.339320 0.000000 
0.294223 -0.449881 -1.942757 96 84 73 -0.865512 0.240168 0.439553 0.000000 
0.399937 -0.518401 -1.728181 108 94 72 -0.347500 -0.908735 -0.231182 0.000000 
0.687672 -0.704592 -1.289845 125 100 74 -0.520382 -0.811045 0.267223 0.000000 
0.335466 -0.465406 -1.879891 94 85 69 -0.112190 0.826124 0.552207 0.000000 
0.432917 -0.551078 -1.632507 72 62 52 -0.335551 0.481857 0.809456 0.000000 
0.717502 -0.721735 -1.248981 115 91 57 0.345820 0.890748 0.294920 0.000000 
0.423205 -0.534081 -1.676418 111 103 91 0.399823 0.856764 0.325725 0.000000 
0.372697 -0.494054 -1.793895 92 79 59 0.441307 0.897191 -0.017228 0.000000 
0.396111 -0.536435 -1.704031 95 81 65 0.706641 0.577559 -0.408759 0.000000 
0.427263 -0.541193 -1.655740 111 91 60 -0.404459 0.810518 0.423643 0.000000 
0.398444 -0.518652 -1.718737 89 82 69 -0.177688 -0.962146 -0.206644 0.000000 
0.488842 -0.576730 -1.560573 126 107 82 -0.038209 -0.918338 -0.393950 0.000000 
0.473802 -0.588253 -1.579142 92 80 68 0.661945 0.681366 -0.312360 0.000000 
0.666128 -0.691935 -1.315153 99 75 46 0.399875 0.914192 0.065973 0.000000 
0.431206 -0.561845 -1.644070 87 72 55 0.787412 0.522280 -0.327423 0.000000 
0.339597 -0.470671 -1.871209 97 87 66 -0.127401 0.877490 0.462364 0.000000 
0.375820 -0.502717 -1.764771 96 79 53 -0.132544 -0.849155 -0.511241 0.000000 
0.494150 -0.583068 -1.559131 101 86 59 -0.916219 -0.370147 0.153407 0.000000 
0.351815 -0.499121 -1.804312 81 70 58 -0.961495 0.077684 0.263615 0.000000 
0.673720 -0.700501 -1.315365 134 119 102 0.735563 0.117393 -0.667208 0.000000 
0.573980 -0.644843 -1.427673 145 127 108 0.870871 0.338247 -0.356613 0.000000 
0.493837 -0.580196 -1.554212 130 114 96 0.661425 0.745738 0.079952 0.000000 
0.413584 -0.531308 -1.686170 122 105 82 -0.201961 0.860205 0.468251 0.000000 
0.440743 -0.573251 -1.640301 101 83 65 0.820355 0.560064 -0.115522 0.000000 
0.421870 -0.533876 -1.689636 122 111 97 -0.803309 -0.589862 0.082206 0.000000 
0.574873 -0.637556 -1.430515 109 89 70 -0.605808 0.588933 0.534934 0.000000 
0.309676 -0.445156 -1.935956 106 103 98 -0.278646 -0.938524 -0.203786 0.000000 
0.637406 -0.682155 -1.347034 94 76 58 -0.954994 -0.200132 0.218937 0.000000 
0.575720 -0.644078 -1.426795 93 80 68 0.802243 0.237414 -0.547760 0.000000 
0.409586 -0.536098 -1.680655 132 112 80 -0.508238 0.682683 0.525012 0.000000 
0.647851 -0.679971 -1.329257 104 85 58 -0.323185 0.794430 0.514230 0.000000 
0.302722 -0.453003 -1.920442 106 90 67 0.481846 -0.798807 -0.360184 0.000000 
0.441286 -0.564366 -1.615574 116 101 82 -0.762186 0.107620 0.638349 0.000000 
0.457345 -0.559659 -1.620998 106 87 58 -0.837539 -0.439904 0.324057 0.000000 
0.450015 -0.576568 -1.607377 90 76 61 0.869249 0.411111 -0.274580 0.000000 
0.290271 -0.454304 -1.949833 93 81 67 -0.857831 0.151037 0.491237 0.000000 
0.566104 -0.627155 -1.449815 131 112 90 -0.034325 0.947102 0.319091 0.000000 
0.287200 -0.433736 -1.973823 92 84 69 0.328514 -0.831503 -0.447974 0.000000 
0.345192 -0.474084 -1.853187 93 78 54 0.277611 0.956790 0.086511 0.000000 
0.448240 -0.553889 -1.612877 92 79 56 -0.178524 0.770552 0.611864 0.000000 
0.473909 -0.574248 -1.591924 110 90 61 0.830827 0.093594 -0.548605 0.000000 
