ply
format ascii 1.0
comment Created by Open3D
obj_info Generated by CloudCompare!
element vertex 626
property float x
property float y
property float z
property uchar red
property uchar green
property uchar blue
property float nx
property float ny
property float nz
property float scalar_leaf3
end_header
1.292138 0.212190 -0.322037 122 116 112 0.569802 0.676744 -0.466201 0.000000 
0.969280 0.262883 -0.614050 85 74 52 -0.186686 -0.802900 0.566128 0.000000 
1.192241 0.211788 -0.389917 86 74 60 -0.644475 -0.587263 0.489667 0.000000 
0.964178 0.258201 -0.621061 97 81 58 0.117261 0.849784 0.513924 0.000000 
1.239497 0.212476 -0.349243 97 85 69 -0.760271 0.198935 0.618395 0.000000 
1.073516 0.246242 -0.522226 90 78 53 -0.144129 -0.815741 0.560172 0.000000 
1.193367 0.218948 -0.417219 73 70 54 0.999972 0.006896 -0.002956 0.000000 
1.217836 0.207943 -0.372300 81 69 53 -0.253630 -0.966735 0.033082 0.000000 
0.837703 0.273330 -0.746867 74 64 31 -0.519655 -0.667648 0.533109 0.000000 
1.221967 0.216802 -0.359266 137 127 119 0.100550 0.966044 0.238011 0.000000 
0.850434 0.269583 -0.731287 67 60 40 -0.721082 -0.459172 0.518847 0.000000 
1.207612 0.211775 -0.377024 91 76 56 -0.798624 -0.457963 0.390474 0.000000 
0.992550 0.244423 -0.587841 109 93 67 -0.714022 -0.241160 0.657278 0.000000 
1.120732 0.225417 -0.471536 80 66 48 0.610241 -0.586575 -0.532481 0.000000 
1.155752 0.225088 -0.425694 83 72 52 0.147940 -0.968687 -0.199398 0.000000 
1.022864 0.241435 -0.571244 73 60 45 -0.486051 0.764261 0.423862 0.000000 
0.836153 0.271139 -0.750513 84 74 53 -0.541812 -0.756584 0.366089 0.000000 
1.054294 0.255224 -0.526985 93 76 43 0.675232 0.615506 -0.406466 0.000000 
1.280326 0.213437 -0.316821 64 58 39 0.165612 0.977486 0.130746 0.000000 
1.178434 0.224098 -0.402793 135 120 101 -0.268003 -0.954511 -0.130701 0.000000 
1.117249 0.237320 -0.477009 77 70 53 -0.173835 -0.796619 0.578947 0.000000 
1.182355 0.215062 -0.422054 63 58 43 0.225154 -0.822503 -0.522297 0.000000 
0.933050 0.255497 -0.656425 70 58 32 0.311661 -0.778354 -0.545007 0.000000 
0.852001 0.264630 -0.735131 74 69 46 0.290524 0.956360 0.031172 0.000000 
1.110246 0.233917 -0.485715 71 64 42 0.663279 -0.186210 -0.724836 0.000000 
1.142055 0.227447 -0.446650 90 76 53 -0.404959 0.904456 0.134046 0.000000 
1.035320 0.247208 -0.561025 105 92 71 -0.552377 -0.458923 0.695895 0.000000 
1.372904 0.203612 -0.240637 93 88 74 0.661519 0.747617 -0.058834 0.000000 
1.186115 0.213568 -0.396484 95 85 71 0.583301 0.741648 -0.331237 0.000000 
1.342118 0.198163 -0.265561 109 107 98 0.770057 -0.392355 -0.503061 0.000000 
0.916190 0.272856 -0.675023 101 85 59 0.426912 0.903341 0.041487 0.000000 
0.888980 0.284527 -0.698024 108 93 74 0.309964 -0.950134 -0.034159 0.000000 
1.314839 0.200850 -0.291637 92 87 67 -0.773050 -0.270330 0.573859 0.000000 
1.109186 0.229181 -0.467425 98 88 65 -0.610248 -0.148439 0.778179 0.000000 
0.866845 0.273241 -0.711396 58 47 16 0.384483 -0.911211 -0.147878 0.000000 
0.990475 0.252754 -0.603616 74 64 45 0.676246 0.459179 -0.576061 0.000000 
1.233082 0.208117 -0.379798 71 65 49 0.193992 -0.921816 -0.335592 0.000000 
1.292361 0.206538 -0.320077 77 73 55 -0.480859 0.477554 0.735334 0.000000 
0.874244 0.291167 -0.720456 102 88 55 -0.242046 -0.873469 -0.422452 0.000000 
1.354109 0.195213 -0.256343 90 83 58 0.001116 0.987889 -0.155160 0.000000 
0.995813 0.253518 -0.595785 92 75 52 -0.681121 -0.563975 0.466911 0.000000 
0.884300 0.258370 -0.700737 75 67 42 0.293920 -0.954923 -0.041628 0.000000 
0.931463 0.264111 -0.666109 71 64 46 -0.840061 0.015025 0.542283 0.000000 
0.902010 0.269148 -0.695392 68 57 31 0.501936 -0.676522 -0.538868 0.000000 
1.279082 0.205781 -0.325089 80 71 58 0.261790 0.964032 -0.045906 0.000000 
1.263391 0.212886 -0.328224 102 88 70 0.646975 -0.319434 -0.692377 0.000000 
0.827100 0.268458 -0.747182 106 105 100 0.183343 -0.810648 -0.556089 0.000000 
0.889813 0.269232 -0.686861 115 99 62 -0.608818 0.474643 0.635653 0.000000 
1.199643 0.213942 -0.403821 79 66 51 0.247137 0.441207 -0.862705 0.000000 
1.249347 0.205525 -0.348165 91 78 60 -0.231549 -0.971526 -0.050230 0.000000 
1.009245 0.235580 -0.571607 92 81 61 -0.607227 0.683338 0.405370 0.000000 
1.189336 0.219306 -0.401061 97 76 49 -0.255125 -0.963382 0.082503 0.000000 
1.196782 0.216848 -0.402414 77 55 31 -0.469861 -0.880124 -0.067915 0.000000 
1.072664 0.233063 -0.519384 85 73 58 0.351890 -0.854147 -0.382893 0.000000 
1.134865 0.227786 -0.460736 58 50 31 0.514347 -0.341296 -0.786743 0.000000 
0.927776 0.252409 -0.653126 82 70 50 -0.115875 0.946978 0.299677 0.000000 
1.241307 0.216190 -0.347758 83 75 55 0.069839 -0.997558 0.001042 0.000000 
1.075163 0.248372 -0.520911 107 95 75 0.287833 0.771266 -0.567715 0.000000 
0.865771 0.264451 -0.724709 86 78 58 0.301855 -0.846742 -0.438077 0.000000 
0.998391 0.241445 -0.586249 94 82 65 0.046968 -0.953314 0.298307 0.000000 
1.288851 0.205616 -0.319776 78 67 54 0.270974 -0.929256 -0.251112 0.000000 
1.208091 0.216869 -0.376798 119 103 78 0.651605 -0.503436 -0.567418 0.000000 
0.946428 0.248781 -0.625602 89 77 56 0.791716 0.553417 -0.258679 0.000000 
0.832430 0.276359 -0.752681 95 97 84 0.461298 -0.053385 -0.885638 0.000000 
1.141786 0.223178 -0.452423 62 51 31 -0.384619 0.681749 0.622323 0.000000 
0.997028 0.242935 -0.594480 65 57 32 0.546934 -0.661370 -0.513277 0.000000 
1.277936 0.214162 -0.314936 123 115 107 0.431761 -0.500712 -0.750247 0.000000 
1.004067 0.252538 -0.590957 76 69 50 -0.690849 -0.415835 0.591446 0.000000 
0.937735 0.264101 -0.642869 116 99 78 -0.072059 0.909576 0.409241 0.000000 
1.123613 0.219535 -0.461095 81 71 46 0.374022 -0.778808 -0.503553 0.000000 
1.075629 0.241091 -0.508005 118 99 76 -0.614229 0.460253 0.641007 0.000000 
0.838874 0.268868 -0.749510 92 90 78 -0.524093 -0.574648 0.628574 0.000000 
1.015035 0.241031 -0.576715 79 67 51 -0.393915 0.782966 0.481451 0.000000 
1.038214 0.249030 -0.555729 91 77 54 -0.440137 -0.712523 0.546434 0.000000 
1.347247 0.202492 -0.262000 84 80 63 -0.189333 -0.900414 0.391673 0.000000 
1.109891 0.224244 -0.477279 90 77 61 -0.003647 0.959049 0.283217 0.000000 
1.374086 0.202048 -0.235354 101 96 78 0.338238 0.577755 0.742828 0.000000 
1.272043 0.204983 -0.329029 77 76 61 -0.044038 0.979538 -0.196384 0.000000 
0.913617 0.266761 -0.683021 66 55 31 0.427743 -0.684055 -0.590851 0.000000 
1.221846 0.207428 -0.371129 83 71 53 0.082497 -0.995468 -0.047298 0.000000 
1.024179 0.236997 -0.563510 94 81 64 -0.028941 -0.950033 -0.310805 0.000000 
1.234147 0.206975 -0.364836 79 69 54 0.138398 0.989372 -0.044608 0.000000 
1.276322 0.213283 -0.319241 76 67 48 0.071783 -0.911510 -0.404965 0.000000 
0.896294 0.281216 -0.692342 84 74 49 -0.140329 -0.900092 -0.412483 0.000000 
1.237925 0.206283 -0.368455 90 76 54 0.229660 -0.964052 -0.133644 0.000000 
0.923354 0.271672 -0.657803 128 114 96 -0.171638 0.767053 0.618199 0.000000 
1.109921 0.246381 -0.482266 136 118 95 -0.753896 -0.319883 0.573861 0.000000 
1.141453 0.215851 -0.443604 78 72 55 -0.208698 -0.911076 0.355507 0.000000 
0.895745 0.258231 -0.690658 83 72 55 -0.465966 0.721336 0.512397 0.000000 
1.300570 0.210055 -0.303206 60 54 36 -0.045265 -0.940219 -0.337548 0.000000 
1.122424 0.231381 -0.461978 101 85 60 0.237076 -0.918131 -0.317538 0.000000 
1.218608 0.209352 -0.397240 76 76 66 -0.399373 0.841033 0.364917 0.000000 
1.291632 0.203468 -0.315027 76 68 49 0.026004 0.989296 -0.143589 0.000000 
0.874901 0.281086 -0.723435 73 62 31 -0.705581 0.365068 0.607356 0.000000 
1.124779 0.230126 -0.460953 124 101 72 0.180697 -0.877044 -0.445133 0.000000 
1.347359 0.203519 -0.260832 81 78 62 -0.030116 -0.972132 0.232492 0.000000 
0.865909 0.275932 -0.732359 75 66 41 0.811826 -0.196483 -0.549848 0.000000 
1.068794 0.233124 -0.513868 106 88 65 -0.601625 -0.625218 0.497141 0.000000 
0.904101 0.269794 -0.693348 78 68 50 0.455170 -0.685256 -0.568546 0.000000 
0.925925 0.266541 -0.672717 70 62 37 0.688881 -0.076865 -0.720787 0.000000 
1.308405 0.210028 -0.295583 121 109 87 -0.009332 0.998557 0.052883 0.000000 
1.206632 0.210177 -0.383973 73 62 44 -0.013270 -0.999344 0.033686 0.000000 
1.165390 0.222328 -0.416473 140 119 90 -0.338188 0.783764 0.520906 0.000000 
1.100915 0.235647 -0.483416 139 118 88 0.526115 -0.693136 -0.492711 0.000000 
1.117339 0.221707 -0.467192 99 84 68 0.085794 0.991779 -0.094945 0.000000 
1.058887 0.240097 -0.524134 104 89 68 0.641309 -0.192239 -0.742811 0.000000 
1.259038 0.206640 -0.337753 92 80 62 0.145620 0.925031 -0.350874 0.000000 
1.196801 0.213887 -0.382925 111 101 90 0.742364 0.155730 -0.651647 0.000000 
0.876626 0.261614 -0.694072 81 72 46 0.786602 0.210889 -0.580330 0.000000 
1.175540 0.211436 -0.408051 85 77 61 -0.513311 -0.772396 0.374053 0.000000 
1.051798 0.243949 -0.547121 77 69 47 -0.682648 -0.268922 0.679465 0.000000 
1.213438 0.216865 -0.403431 112 103 93 0.718578 0.092200 -0.689308 0.000000 
0.893245 0.281182 -0.693930 108 90 59 0.725979 -0.627054 -0.282414 0.000000 
1.269644 0.208137 -0.341099 66 61 41 0.538472 -0.149823 -0.829217 0.000000 
0.994846 0.249304 -0.585261 112 94 71 0.577946 -0.141144 -0.803776 0.000000 
1.232782 0.213058 -0.378962 67 64 53 0.553248 0.830580 -0.063673 0.000000 
1.264321 0.209379 -0.346860 100 90 79 0.763418 -0.107379 -0.636917 0.000000 
1.339041 0.196890 -0.275619 76 71 45 -0.602873 0.575853 0.552211 0.000000 
0.985348 0.241799 -0.594260 101 89 64 -0.348529 -0.652879 0.672515 0.000000 
1.084404 0.230622 -0.507084 73 62 36 -0.474628 0.732614 0.487858 0.000000 
0.895334 0.282254 -0.697587 83 72 49 0.276506 0.933382 0.228784 0.000000 
1.200673 0.210067 -0.390530 80 66 47 -0.055288 -0.984598 0.165864 0.000000 
1.211125 0.217939 -0.382559 93 75 48 -0.203767 -0.978322 -0.036940 0.000000 
1.128313 0.218414 -0.455660 106 95 77 0.115696 -0.929649 -0.349809 0.000000 
1.322919 0.201711 -0.292019 71 67 47 -0.632626 -0.038042 0.773523 0.000000 
1.117489 0.228832 -0.465125 134 112 83 0.609542 -0.318514 -0.725953 0.000000 
0.851481 0.276363 -0.750996 78 72 53 0.521173 -0.305734 -0.796809 0.000000 
1.206518 0.217170 -0.399391 56 47 31 0.334688 0.810549 0.480619 0.000000 
1.269356 0.211334 -0.322093 114 103 89 0.650970 0.212847 -0.728652 0.000000 
0.893385 0.282872 -0.697542 84 74 51 0.380519 0.882865 0.275237 0.000000 
1.314703 0.203462 -0.293115 100 87 68 0.174426 -0.957348 -0.230349 0.000000 
1.069258 0.233104 -0.513305 106 90 68 0.601625 0.625218 -0.497141 0.000000 
1.130949 0.221872 -0.458939 71 61 39 0.387730 -0.661616 -0.641817 0.000000 
0.878141 0.278244 -0.712060 55 44 18 -0.118801 -0.946405 0.300340 0.000000 
0.994883 0.255517 -0.587633 137 117 90 0.232384 -0.957421 -0.171300 0.000000 
0.864098 0.282851 -0.736979 82 73 44 0.698338 -0.369708 -0.612894 0.000000 
1.030517 0.236795 -0.559915 71 61 38 0.024812 -0.918050 -0.395688 0.000000 
1.218429 0.213261 -0.397393 74 71 58 0.497900 -0.501230 -0.707717 0.000000 
0.926973 0.267352 -0.672445 79 68 43 -0.772570 -0.185111 0.607347 0.000000 
0.872919 0.270262 -0.721623 73 63 36 0.745922 -0.233003 -0.623947 0.000000 
1.198729 0.217710 -0.382783 125 110 90 -0.352307 0.855158 0.380243 0.000000 
1.318370 0.201755 -0.295268 67 63 43 0.668078 0.023810 -0.743710 0.000000 
1.078908 0.231677 -0.518517 73 72 58 0.510166 -0.749665 -0.421584 0.000000 
1.167196 0.217566 -0.411834 130 121 111 0.681997 0.438546 -0.585284 0.000000 
1.183643 0.217935 -0.423359 135 114 93 -0.126924 0.386352 0.913577 0.000000 
1.113039 0.222089 -0.472328 95 81 65 0.043125 -0.929137 -0.367212 0.000000 
1.135343 0.227663 -0.444640 124 107 88 0.183132 -0.973756 -0.135139 0.000000 
0.850694 0.278778 -0.751159 81 73 52 0.566432 -0.217621 -0.794856 0.000000 
1.130635 0.215766 -0.445990 77 70 49 -0.473531 -0.670975 0.570580 0.000000 
0.914509 0.270107 -0.684629 72 62 35 -0.890804 0.017310 0.454057 0.000000 
1.147625 0.238997 -0.451301 109 107 100 0.746964 0.278718 -0.603623 0.000000 
1.228992 0.214183 -0.385905 110 102 88 0.627822 0.421323 -0.654467 0.000000 
1.170669 0.213949 -0.424233 69 62 45 0.078839 -0.818496 -0.569077 0.000000 
1.129669 0.240699 -0.464587 82 74 56 -0.688914 -0.426628 0.585992 0.000000 
1.308352 0.207515 -0.305884 66 63 39 0.572130 0.291643 -0.766558 0.000000 
1.210400 0.210501 -0.396100 65 59 46 0.021017 0.958124 0.285583 0.000000 
1.252752 0.211668 -0.337248 117 105 91 0.654145 0.107794 -0.748649 0.000000 
0.860565 0.263482 -0.718026 84 78 54 0.354309 0.592692 -0.723313 0.000000 
1.123008 0.238672 -0.473611 85 78 57 0.813049 0.307853 -0.494144 0.000000 
1.376433 0.201352 -0.235770 98 95 85 0.769876 0.603249 0.208283 0.000000 
1.061165 0.234594 -0.523281 106 94 81 0.590830 0.627862 -0.506666 0.000000 
0.872629 0.295995 -0.727050 89 79 52 0.760781 0.635230 -0.133025 0.000000 
1.333529 0.201454 -0.281051 55 53 40 0.718260 0.332378 -0.611251 0.000000 
1.293701 0.204395 -0.314521 76 66 42 0.209229 -0.931001 -0.299100 0.000000 
0.962946 0.246304 -0.623250 80 68 53 0.226538 -0.932886 -0.280007 0.000000 
0.861759 0.269549 -0.710026 86 74 52 0.565243 0.255221 -0.784451 0.000000 
1.278634 0.214559 -0.326879 76 68 44 0.207262 0.956078 -0.207262 0.000000 
0.874193 0.268515 -0.719314 64 57 31 0.753919 -0.236677 -0.612853 0.000000 
1.246537 0.211947 -0.365657 76 73 59 0.652613 0.652613 -0.384959 0.000000 
0.903980 0.273230 -0.677766 85 72 55 0.616207 -0.514913 -0.595948 0.000000 
1.354686 0.199890 -0.262171 61 57 30 -0.716594 -0.192633 0.670362 0.000000 
0.904706 0.273134 -0.696840 75 67 47 0.627930 -0.347400 -0.696432 0.000000 
1.229048 0.214858 -0.361855 94 78 54 0.100560 0.982579 0.156292 0.000000 
1.131493 0.223735 -0.460701 64 54 32 0.450794 -0.540620 -0.710292 0.000000 
1.085300 0.245209 -0.505415 123 101 74 -0.005901 -0.973694 -0.227785 0.000000 
1.143101 0.220279 -0.435209 128 116 96 -0.613431 -0.379900 0.692371 0.000000 
1.223849 0.213076 -0.360096 122 112 96 0.539665 -0.443356 -0.715679 0.000000 
1.078216 0.245342 -0.509990 131 109 81 -0.430375 0.784419 0.446615 0.000000 
1.257933 0.207568 -0.353328 65 61 43 0.469448 -0.728225 -0.499307 0.000000 
1.083797 0.228485 -0.505403 78 68 44 -0.465991 0.791702 0.395045 0.000000 
0.887260 0.286880 -0.715055 80 71 51 -0.766011 -0.554033 0.325996 0.000000 
1.223730 0.210100 -0.383161 78 64 48 0.250074 0.915012 0.316568 0.000000 
1.221240 0.209032 -0.377319 80 68 52 0.150327 -0.943946 -0.293883 0.000000 
1.283170 0.204636 -0.316069 82 73 53 -0.184846 -0.935348 0.301591 0.000000 
0.930446 0.269282 -0.663619 76 65 44 -0.656231 -0.691702 0.301511 0.000000 
1.033069 0.246999 -0.545978 135 126 116 0.705176 0.073848 -0.705176 0.000000 
1.290776 0.210100 -0.317338 97 87 65 -0.286334 -0.783068 0.552103 0.000000 
0.969481 0.242437 -0.611853 88 77 59 -0.419483 0.881952 -0.214929 0.000000 
1.161384 0.222213 -0.417379 129 118 103 0.397407 -0.488243 -0.776972 0.000000 
1.255232 0.204890 -0.344615 91 77 57 0.067154 -0.986100 0.151980 0.000000 
1.141235 0.236347 -0.441037 130 121 108 0.046307 -0.390301 -0.919522 0.000000 
0.853243 0.297684 -0.745345 108 99 67 -0.258278 -0.632226 0.730467 0.000000 
1.340333 0.199816 -0.275854 122 104 81 0.750444 -0.041140 -0.659653 0.000000 
1.184001 0.219042 -0.411698 49 36 19 0.263897 0.964378 0.018242 0.000000 
1.333515 0.200970 -0.283094 69 67 47 -0.677746 -0.269504 0.684125 0.000000 
0.924120 0.273485 -0.668339 89 79 57 0.372491 0.907499 -0.194156 0.000000 
1.052187 0.244457 -0.525637 88 77 58 0.644217 -0.446769 -0.620791 0.000000 
0.981692 0.255392 -0.598319 89 78 56 0.329326 -0.501148 -0.800247 0.000000 
1.083243 0.236198 -0.513677 72 62 38 0.720141 -0.310933 -0.620256 0.000000 
0.970111 0.247557 -0.621519 64 54 31 0.568969 -0.552085 -0.609489 0.000000 
1.095515 0.237650 -0.501765 68 59 42 -0.772139 -0.085793 0.629635 0.000000 
0.939223 0.254455 -0.651092 65 55 31 -0.467196 0.737938 0.487006 0.000000 
1.056714 0.234545 -0.519243 124 113 97 -0.517164 -0.855572 0.023197 0.000000 
1.367157 0.196202 -0.239648 143 136 123 -0.099616 0.827245 -0.552940 0.000000 
0.916136 0.251249 -0.665477 74 68 47 -0.119635 0.896558 0.426463 0.000000 
1.075491 0.233904 -0.519481 71 61 35 0.520628 -0.628460 -0.577914 0.000000 
0.875583 0.267732 -0.716759 64 57 32 -0.749883 0.284987 0.597041 0.000000 
0.986980 0.246109 -0.605537 88 75 60 -0.594016 0.553399 0.583862 0.000000 
0.912704 0.277091 -0.678003 94 85 63 0.374863 0.893449 -0.247439 0.000000 
1.115638 0.231042 -0.481980 76 71 57 0.559373 -0.312544 -0.767736 0.000000 
1.246704 0.205773 -0.357209 77 63 46 0.054127 -0.995273 -0.080638 0.000000 
1.334573 0.208081 -0.276374 63 59 32 0.753462 0.604981 -0.257472 0.000000 
0.859736 0.266310 -0.714300 84 74 54 0.507307 0.761776 -0.402910 0.000000 
0.925748 0.259305 -0.668928 64 55 29 -0.377776 0.770144 0.513969 0.000000 
1.181608 0.212354 -0.415771 68 60 45 0.212917 0.966514 0.143235 0.000000 
1.317916 0.205327 -0.295572 64 62 41 -0.601035 -0.453706 0.657957 0.000000 
1.171459 0.224607 -0.431370 137 112 84 -0.009422 -0.860057 -0.510112 0.000000 
1.219757 0.217025 -0.389113 55 47 30 -0.095624 -0.965170 -0.243524 0.000000 
1.125160 0.228436 -0.456875 127 106 80 0.185440 -0.921535 -0.341152 0.000000 
1.322892 0.203126 -0.283520 103 99 81 -0.567510 0.001361 0.823366 0.000000 
0.999274 0.249759 -0.595378 71 63 38 0.598716 0.239174 -0.764418 0.000000 
0.906094 0.256424 -0.670798 65 55 42 -0.585116 -0.768063 0.260227 0.000000 
0.889596 0.260952 -0.700818 79 67 41 0.674480 -0.560672 -0.480337 0.000000 
0.919456 0.252955 -0.664232 71 63 39 0.269573 -0.845690 -0.460585 0.000000 
1.053410 0.237429 -0.530140 105 91 71 0.682438 0.458852 -0.568976 0.000000 
1.111391 0.236527 -0.478494 119 104 79 0.069777 0.815962 0.573879 0.000000 
0.919676 0.259088 -0.670144 76 65 46 -0.294401 0.686937 0.664414 0.000000 
1.239117 0.205389 -0.347938 79 71 44 -0.298915 -0.916961 0.264258 0.000000 
1.374498 0.196798 -0.239796 84 79 58 0.670288 -0.735107 0.101648 0.000000 
1.183053 0.217114 -0.397682 122 109 92 0.632520 -0.175277 -0.754451 0.000000 
1.303233 0.204988 -0.307017 77 66 53 0.350916 -0.072832 -0.933570 0.000000 
1.187480 0.225287 -0.426778 117 99 81 -0.644337 -0.064577 0.762011 0.000000 
0.941649 0.250002 -0.636798 85 70 53 -0.082937 0.679501 -0.728972 0.000000 
1.349980 0.197486 -0.267769 64 60 36 0.340168 -0.698239 -0.629880 0.000000 
1.110890 0.226585 -0.480899 67 58 35 0.506723 -0.624566 -0.594263 0.000000 
1.256324 0.204983 -0.338144 121 120 104 -0.182176 -0.908012 0.377262 0.000000 
0.886109 0.271208 -0.689642 91 75 54 -0.425588 0.564691 0.707106 0.000000 
1.007253 0.243002 -0.585454 67 55 29 -0.536442 0.516262 0.667610 0.000000 
1.196141 0.216749 -0.384853 128 114 92 -0.606432 0.226048 0.762327 0.000000 
0.872381 0.292503 -0.728447 88 75 46 0.783559 0.403947 -0.472082 0.000000 
1.033387 0.232757 -0.550450 86 77 53 0.038023 0.967759 -0.248992 0.000000 
1.231579 0.206271 -0.368511 88 75 55 0.052396 -0.997664 -0.043842 0.000000 
0.851500 0.293056 -0.751927 95 89 60 0.719719 0.202759 -0.663998 0.000000 
0.871413 0.287651 -0.732426 83 74 47 0.713471 -0.104879 -0.692791 0.000000 
0.928523 0.257548 -0.661488 77 67 52 -0.364455 0.797948 0.480053 0.000000 
1.133830 0.221156 -0.457050 69 60 39 0.420206 -0.692593 -0.586295 0.000000 
1.021985 0.252787 -0.563538 103 90 68 0.222216 -0.907745 -0.355836 0.000000 
1.108484 0.228190 -0.483228 81 65 42 0.442058 -0.612209 -0.655580 0.000000 
1.043722 0.239299 -0.538433 103 87 68 0.512862 0.068850 -0.855706 0.000000 
1.196406 0.213422 -0.406879 77 67 55 -0.191541 0.955024 0.226366 0.000000 
0.856841 0.295746 -0.744678 111 104 74 0.515963 0.436838 -0.736855 0.000000 
0.859089 0.304477 -0.731173 97 85 60 -0.521509 -0.323750 0.789440 0.000000 
0.867962 0.274299 -0.710896 58 46 17 0.316655 -0.936257 -0.152159 0.000000 
1.185894 0.216672 -0.393251 149 129 103 0.688476 -0.082966 -0.720498 0.000000 
1.319503 0.202618 -0.293166 98 89 76 -0.466610 0.061939 0.882292 0.000000 
1.085336 0.242697 -0.501190 145 120 88 0.322233 -0.697902 -0.639608 0.000000 
1.244826 0.206898 -0.364561 83 74 63 -0.442304 0.864984 0.237003 0.000000 
0.993924 0.253773 -0.600184 77 68 50 -0.442058 -0.612209 0.655580 0.000000 
1.210435 0.215348 -0.405896 120 113 102 0.279473 -0.627617 -0.726630 0.000000 
0.858006 0.265584 -0.734640 85 76 57 -0.286469 0.897999 0.333966 0.000000 
0.979051 0.255267 -0.610604 63 54 37 0.420468 0.810559 -0.407678 0.000000 
1.146391 0.233088 -0.452018 86 81 65 0.726946 0.192926 -0.659036 0.000000 
0.913977 0.274015 -0.671535 92 77 49 -0.001090 -0.992658 -0.120950 0.000000 
1.122820 0.222154 -0.456905 123 112 98 0.664677 0.591010 -0.457070 0.000000 
1.176023 0.211818 -0.417786 72 66 51 0.205353 -0.967352 -0.148525 0.000000 
0.847809 0.267177 -0.736519 64 57 40 -0.653735 -0.746062 0.126577 0.000000 
1.286073 0.202849 -0.317178 80 75 59 -0.124916 -0.986243 0.108261 0.000000 
0.920117 0.252947 -0.655912 91 80 64 -0.457306 -0.428012 0.779536 0.000000 
0.893371 0.281878 -0.708044 79 68 44 -0.838683 -0.355852 0.412287 0.000000 
0.907186 0.262132 -0.683608 64 55 29 0.580704 -0.510009 -0.634566 0.000000 
1.137459 0.225718 -0.443126 134 116 90 0.249336 -0.865876 -0.433694 0.000000 
0.905945 0.279075 -0.687653 111 97 72 -0.143884 -0.980134 -0.136506 0.000000 
1.214834 0.212562 -0.366846 119 109 97 -0.665205 0.149332 0.731575 0.000000 
0.977290 0.240502 -0.601817 146 130 110 0.453274 0.843121 -0.289291 0.000000 
1.265071 0.208904 -0.326500 102 96 82 0.741180 0.117341 -0.660972 0.000000 
0.862706 0.282079 -0.738701 77 66 41 0.778410 -0.276312 -0.563676 0.000000 
0.971745 0.245169 -0.609170 102 87 69 0.426820 0.766968 -0.479150 0.000000 
1.336858 0.196900 -0.276031 84 77 54 -0.398881 0.913478 0.080321 0.000000 
1.179266 0.213664 -0.421036 65 60 45 -0.024812 0.918050 0.395688 0.000000 
1.065740 0.241792 -0.517434 143 120 90 0.511984 -0.341858 -0.788039 0.000000 
0.891499 0.255617 -0.688276 78 72 55 0.292252 0.955195 -0.046811 0.000000 
0.874874 0.275533 -0.721023 73 63 36 -0.747222 0.243830 0.618228 0.000000 
0.854886 0.265106 -0.724655 86 77 55 -0.654066 -0.722751 0.223225 0.000000 
1.212310 0.218556 -0.385008 81 71 55 0.226626 0.973160 -0.039993 0.000000 
1.239260 0.216546 -0.351788 114 104 88 0.423730 -0.870079 0.251825 0.000000 
1.082186 0.243239 -0.513579 66 58 39 0.653326 0.656617 -0.376855 0.000000 
1.288470 0.206817 -0.324126 130 113 93 0.586134 -0.004099 -0.810204 0.000000 
1.137749 0.219884 -0.450484 77 65 50 -0.366824 0.748321 0.552681 0.000000 
0.982024 0.243085 -0.598035 117 105 90 -0.408615 -0.749948 0.520204 0.000000 
1.159014 0.217224 -0.423829 100 88 69 0.407277 0.783724 -0.468937 0.000000 
0.851375 0.270168 -0.726698 100 96 71 -0.815573 -0.163115 0.555188 0.000000 
1.213739 0.206601 -0.367142 96 88 66 -0.722736 -0.503423 0.473517 0.000000 
1.280345 0.210906 -0.313558 130 116 95 0.630283 -0.198793 -0.750483 0.000000 
1.249060 0.204788 -0.346038 87 75 52 0.312530 0.917427 -0.246279 0.000000 
0.888191 0.279503 -0.698425 82 69 40 -0.572031 0.338682 0.747044 0.000000 
1.173487 0.212989 -0.407478 103 91 75 -0.596336 -0.565928 0.569306 0.000000 
1.160773 0.222054 -0.440069 61 50 32 -0.283153 0.631895 0.721480 0.000000 
1.218698 0.207875 -0.375747 79 67 47 -0.231366 0.951172 0.204306 0.000000 
1.062915 0.232791 -0.524182 102 87 65 0.301770 0.916862 -0.261342 0.000000 
1.354991 0.197617 -0.249702 115 112 98 0.434633 0.882437 -0.180000 0.000000 
0.963054 0.252234 -0.614592 107 89 68 0.462211 -0.276708 -0.842492 0.000000 
1.247578 0.212322 -0.342797 106 92 72 -0.618103 0.409307 0.671131 0.000000 
0.942365 0.260514 -0.635024 88 78 57 0.636685 -0.488853 -0.596368 0.000000 
1.076791 0.242579 -0.508592 116 99 78 -0.606077 0.545301 0.579066 0.000000 
0.923483 0.258061 -0.653350 82 69 53 -0.673259 0.319595 0.666770 0.000000 
1.276701 0.213697 -0.320220 94 85 67 -0.148567 -0.985295 -0.084386 0.000000 
0.860875 0.275202 -0.724562 78 67 29 0.417618 -0.623931 -0.660535 0.000000 
1.016097 0.248739 -0.579682 73 67 46 -0.678915 -0.279553 0.678915 0.000000 
1.040412 0.256038 -0.545708 82 72 45 0.800671 -0.230754 -0.552881 0.000000 
0.853913 0.265361 -0.736020 68 59 43 0.032759 0.990686 0.132167 0.000000 
0.933575 0.267956 -0.652524 119 102 74 0.066652 -0.964565 -0.255289 0.000000 
1.237599 0.211639 -0.377821 114 108 102 0.645066 0.269175 -0.715147 0.000000 
0.986614 0.252560 -0.594055 125 107 86 0.548509 -0.565386 -0.616017 0.000000 
1.101404 0.243240 -0.492134 128 120 101 -0.500682 -0.625431 0.598459 0.000000 
1.004628 0.237299 -0.575311 97 86 68 0.652809 -0.355037 -0.669170 0.000000 
1.280327 0.210799 -0.326277 63 55 40 0.666285 0.732462 -0.139875 0.000000 
1.270389 0.209785 -0.322503 108 98 85 0.681848 0.372963 -0.629272 0.000000 
1.344337 0.198201 -0.265690 109 101 90 0.186376 0.438791 0.879049 0.000000 
1.087718 0.226941 -0.497389 85 75 53 -0.261413 0.945739 0.192980 0.000000 
0.963153 0.254066 -0.615030 122 104 79 0.472584 -0.439879 -0.763656 0.000000 
0.907880 0.279220 -0.687012 94 83 61 -0.580330 -0.786602 0.210889 0.000000 
0.939847 0.256999 -0.653269 66 57 33 0.498873 -0.730907 -0.465725 0.000000 
0.979122 0.248207 -0.597874 149 132 111 0.727633 0.107743 -0.677452 0.000000 
1.199336 0.214783 -0.412651 65 61 46 0.411030 -0.515834 -0.751644 0.000000 
1.056685 0.234394 -0.536353 83 71 57 0.242016 -0.935890 -0.256006 0.000000 
0.911732 0.273673 -0.684275 79 67 42 -0.534294 -0.800658 0.271064 0.000000 
1.269330 0.213715 -0.338395 74 67 46 0.481431 0.779691 -0.400382 0.000000 
1.132612 0.233083 -0.460924 120 107 85 0.605177 0.778085 0.168358 0.000000 
0.853687 0.264637 -0.738290 89 86 74 -0.094511 0.984589 0.147150 0.000000 
0.992198 0.246212 -0.601122 91 77 62 0.486117 -0.459751 -0.743182 0.000000 
0.867245 0.290654 -0.724428 94 82 48 0.458669 -0.171451 -0.871910 0.000000 
0.977264 0.246679 -0.601508 114 99 73 -0.709064 -0.269285 0.651701 0.000000 
0.881823 0.289892 -0.715403 94 80 53 0.147713 0.988886 -0.016914 0.000000 
0.924655 0.259980 -0.671306 63 54 28 0.402105 -0.670174 -0.623841 0.000000 
0.858938 0.267149 -0.718541 87 78 57 0.789109 0.485730 -0.375997 0.000000 
0.987308 0.256731 -0.597482 122 103 81 0.308204 -0.627704 -0.714841 0.000000 
0.978674 0.249357 -0.615848 68 59 35 0.644789 -0.347696 -0.680701 0.000000 
1.338680 0.203160 -0.266418 134 124 105 -0.554971 0.308673 0.772482 0.000000 
1.213134 0.209199 -0.388561 70 61 44 -0.148368 0.972634 0.178802 0.000000 
1.229923 0.214846 -0.378686 52 48 35 -0.214490 -0.974397 -0.067411 0.000000 
1.170924 0.214136 -0.410012 125 115 93 -0.775343 -0.325869 0.540974 0.000000 
1.251992 0.205815 -0.343101 94 80 60 0.132550 0.913897 -0.383697 0.000000 
1.039315 0.250088 -0.550253 74 61 36 -0.194732 -0.980656 -0.019823 0.000000 
1.319345 0.202715 -0.294347 55 54 44 0.678459 0.052848 -0.732735 0.000000 
1.129071 0.226336 -0.449268 106 96 78 -0.644492 0.329551 0.689947 0.000000 
1.045725 0.243999 -0.535590 123 107 80 -0.542074 0.209195 0.813875 0.000000 
1.072646 0.234578 -0.509873 135 115 91 0.898631 0.075458 -0.432166 0.000000 
1.046466 0.230859 -0.538042 88 79 56 0.054774 0.974979 0.215445 0.000000 
0.958973 0.259467 -0.625371 114 95 69 -0.256295 0.906550 0.335380 0.000000 
1.081999 0.231995 -0.512341 72 61 37 -0.470839 0.648450 0.598183 0.000000 
0.907541 0.281075 -0.684009 122 109 91 0.126230 0.961689 0.243350 0.000000 
1.350595 0.197106 -0.265821 68 64 38 -0.205401 0.954512 0.216141 0.000000 
0.925660 0.270674 -0.666950 99 85 62 0.496519 0.867900 -0.014801 0.000000 
1.078691 0.236792 -0.504350 135 113 85 0.648148 -0.365917 -0.667839 0.000000 
1.193286 0.222712 -0.418538 96 92 80 0.573822 -0.031956 -0.818356 0.000000 
0.936195 0.250690 -0.645668 81 70 56 0.063316 -0.839993 -0.538890 0.000000 
0.882863 0.273035 -0.713185 69 59 32 0.470914 -0.487437 -0.735286 0.000000 
0.922056 0.250459 -0.650610 86 75 49 0.854666 0.505882 -0.116742 0.000000 
1.091370 0.242218 -0.490689 141 128 111 -0.539539 0.593662 0.597045 0.000000 
1.119630 0.230861 -0.475592 65 58 34 -0.669254 0.315991 0.672495 0.000000 
1.196725 0.213774 -0.410843 93 80 61 -0.273969 0.914678 0.297162 0.000000 
1.011751 0.252242 -0.583570 83 75 57 -0.580716 -0.580716 0.570558 0.000000 
1.237676 0.216781 -0.349183 131 120 106 -0.602356 0.797029 0.043731 0.000000 
0.913814 0.265659 -0.665797 118 98 62 0.562600 -0.579495 -0.589632 0.000000 
0.845717 0.273308 -0.744787 57 47 27 0.316568 0.915012 0.250074 0.000000 
1.149680 0.218043 -0.437998 81 69 53 0.139879 -0.979150 -0.147306 0.000000 
1.208056 0.217095 -0.373954 122 117 109 0.621707 -0.380940 -0.684372 0.000000 
1.243443 0.205896 -0.343588 74 66 37 0.510423 0.694509 -0.507076 0.000000 
1.200857 0.215032 -0.379627 133 121 104 -0.330556 -0.021530 0.943541 0.000000 
1.070058 0.246368 -0.519597 117 101 76 0.182607 0.982822 -0.026751 0.000000 
0.963134 0.261951 -0.630384 85 75 56 0.517926 0.726420 -0.451737 0.000000 
1.328323 0.197827 -0.283800 98 90 77 0.506752 -0.845578 -0.167927 0.000000 
1.277870 0.205527 -0.320959 90 80 67 -0.509528 -0.841245 0.180800 0.000000 
1.369898 0.195969 -0.243492 83 78 61 0.252200 -0.957305 0.141285 0.000000 
1.115704 0.231725 -0.461943 137 127 117 -0.502957 0.556786 0.661078 0.000000 
0.989571 0.260733 -0.594485 98 89 71 0.695796 0.373394 -0.613551 0.000000 
1.085330 0.229316 -0.501666 91 76 54 0.315480 -0.899044 -0.303631 0.000000 
0.965503 0.264728 -0.626069 116 108 92 0.325172 0.898308 0.295476 0.000000 
0.892491 0.276905 -0.708243 74 63 36 0.684940 -0.230403 -0.691210 0.000000 
0.974732 0.244346 -0.613206 77 64 43 0.529902 -0.754906 -0.386421 0.000000 
1.029374 0.245282 -0.552474 101 85 66 0.695364 -0.127110 -0.707327 0.000000 
1.127332 0.223305 -0.463844 66 55 31 0.507789 -0.622506 -0.595514 0.000000 
1.266397 0.205690 -0.330717 93 79 62 0.353485 0.910403 -0.214976 0.000000 
1.159658 0.214671 -0.430401 70 63 46 -0.193276 0.877857 0.438191 0.000000 
1.283956 0.209416 -0.327132 77 72 53 0.585002 0.477724 -0.655403 0.000000 
0.927252 0.260455 -0.649976 122 99 65 -0.690116 0.308694 0.654560 0.000000 
0.924044 0.272165 -0.664657 119 101 72 0.263479 0.960092 0.093824 0.000000 
0.971334 0.243096 -0.614279 85 72 53 0.284256 -0.919144 -0.272713 0.000000 
1.135612 0.233426 -0.455590 123 107 85 0.078364 0.933722 0.349316 0.000000 
1.195616 0.209940 -0.399649 69 63 50 0.084637 -0.977624 -0.192581 0.000000 
0.900053 0.259319 -0.689437 65 56 30 -0.675449 0.507844 0.534661 0.000000 
1.052124 0.239772 -0.546411 73 66 44 0.636522 -0.254293 -0.728131 0.000000 
0.899146 0.256987 -0.686742 70 60 36 -0.477844 0.844241 0.242738 0.000000 
1.101718 0.241132 -0.488971 137 124 97 -0.205869 -0.895018 -0.395677 0.000000 
1.356205 0.201171 -0.246952 114 107 90 -0.565212 0.704443 0.429296 0.000000 
1.256026 0.215178 -0.343811 54 48 31 -0.190861 -0.934802 0.299527 0.000000 
1.094194 0.232308 -0.501262 68 58 32 0.394975 -0.636258 -0.662699 0.000000 
1.131085 0.242026 -0.459507 80 73 52 0.686778 0.029615 -0.726264 0.000000 
1.099390 0.239255 -0.496199 69 60 42 0.752082 0.334798 -0.567700 0.000000 
0.863264 0.274572 -0.721390 71 61 25 0.493836 -0.753059 -0.434773 0.000000 
0.985258 0.247792 -0.610947 118 107 93 -0.698889 0.373289 0.610089 0.000000 
1.350681 0.198379 -0.266401 61 57 32 -0.183120 0.918438 0.350625 0.000000 
1.065708 0.240331 -0.516766 145 121 90 -0.475193 0.232283 0.848667 0.000000 
0.856352 0.297868 -0.744481 117 111 86 -0.199408 -0.715705 0.669331 0.000000 
1.016983 0.252334 -0.572687 61 54 36 -0.235440 -0.902275 0.361203 0.000000 
1.249614 0.212223 -0.358092 52 49 37 0.125998 0.950956 -0.282502 0.000000 
1.010177 0.235422 -0.571001 93 82 62 -0.463070 0.767419 0.443434 0.000000 
1.216378 0.220253 -0.399940 83 78 62 0.821608 -0.026325 -0.569445 0.000000 
1.032542 0.238781 -0.561550 67 59 35 0.379330 -0.763545 -0.522597 0.000000 
1.265549 0.205873 -0.338909 75 64 49 -0.038913 0.900358 0.433406 0.000000 
0.975299 0.247749 -0.602195 152 129 100 0.762220 0.049865 -0.645394 0.000000 
0.913893 0.273455 -0.669093 113 95 76 -0.352172 0.653566 0.669946 0.000000 
1.319369 0.205870 -0.294576 64 62 41 0.632465 0.330052 -0.700752 0.000000 
1.192639 0.213779 -0.411016 79 70 58 0.190792 -0.956627 -0.220144 0.000000 
1.107159 0.233565 -0.489159 81 71 56 -0.653042 0.219759 0.724736 0.000000 
1.273330 0.208889 -0.319380 109 99 87 -0.507478 -0.287519 0.812280 0.000000 
0.953637 0.257761 -0.642412 84 73 59 -0.691826 0.206770 0.691826 0.000000 
1.102566 0.226953 -0.486446 95 81 64 -0.353271 0.740729 0.571420 0.000000 
1.110748 0.238110 -0.484721 80 73 53 0.699061 0.495516 -0.515537 0.000000 
0.931403 0.263870 -0.665373 67 61 44 0.826904 -0.023468 -0.561853 0.000000 
0.881498 0.274299 -0.714814 67 57 30 -0.394891 0.382305 0.835407 0.000000 
1.174395 0.222928 -0.427067 95 90 73 -0.291998 -0.947994 -0.126666 0.000000 
1.161997 0.220183 -0.417763 126 112 94 0.669703 0.018176 -0.742406 0.000000 
0.949531 0.253910 -0.628947 99 86 64 -0.810397 0.263886 0.523088 0.000000 
0.885614 0.289005 -0.714882 112 98 72 0.540410 0.769480 -0.340378 0.000000 
1.011936 0.250821 -0.584046 92 82 60 -0.628536 -0.381081 0.678027 0.000000 
1.316580 0.206511 -0.287641 103 96 87 -0.654715 0.189482 0.731741 0.000000 
1.020034 0.249620 -0.574230 59 51 35 0.549008 0.508714 -0.663175 0.000000 
1.057811 0.244704 -0.524395 99 87 62 -0.546960 0.355443 0.757954 0.000000 
1.069036 0.241199 -0.528878 80 72 53 0.800716 0.061156 -0.595915 0.000000 
1.225458 0.212550 -0.360465 104 88 68 -0.101365 0.167314 0.980679 0.000000 
0.921288 0.257331 -0.667340 75 64 40 0.314347 -0.786666 -0.531359 0.000000 
1.337513 0.197698 -0.273091 104 93 79 -0.080949 0.847838 -0.524040 0.000000 
1.057650 0.237653 -0.522210 145 129 108 0.522688 0.031553 -0.851940 0.000000 
1.076744 0.228112 -0.510248 85 76 57 -0.081373 0.987087 0.137980 0.000000 
1.143606 0.218846 -0.444949 81 69 54 0.393769 -0.798789 -0.454843 0.000000 
1.186558 0.209104 -0.394449 95 88 68 0.387832 0.605677 -0.694796 0.000000 
1.207466 0.212443 -0.373984 146 125 101 0.764750 0.168762 -0.621834 0.000000 
1.147535 0.228331 -0.451789 81 67 50 -0.522390 0.051542 0.851147 0.000000 
1.044469 0.245880 -0.553273 70 62 44 -0.590346 -0.408446 0.696178 0.000000 
0.904698 0.264933 -0.671195 100 83 63 0.516978 -0.374364 -0.769795 0.000000 
1.269236 0.207543 -0.340018 88 73 57 -0.583600 0.281464 0.761701 0.000000 
1.065452 0.246212 -0.519191 99 84 57 -0.425106 0.816777 0.390078 0.000000 
1.147267 0.225271 -0.433086 127 112 88 -0.219858 0.963992 0.149607 0.000000 
1.102924 0.231769 -0.477854 111 92 70 0.604492 -0.453787 -0.654727 0.000000 
1.101487 0.223260 -0.477476 112 101 85 -0.986936 0.062049 0.148684 0.000000 
1.097318 0.225205 -0.481694 149 127 103 0.724152 0.268971 -0.635026 0.000000 
0.986710 0.239231 -0.585288 91 82 61 -0.165111 -0.516157 -0.840429 0.000000 
1.029307 0.236732 -0.561217 71 61 37 -0.204923 0.925685 0.317983 0.000000 
0.863202 0.289811 -0.740576 80 68 43 0.781248 -0.076536 -0.619511 0.000000 
1.066817 0.241744 -0.531709 82 74 55 0.697425 0.230385 -0.678618 0.000000 
1.187565 0.217320 -0.393118 115 98 77 0.649312 -0.192789 -0.735681 0.000000 
1.069335 0.232852 -0.514324 111 97 76 0.327597 0.873083 -0.361118 0.000000 
1.002764 0.255507 -0.579314 103 91 70 -0.490010 0.770016 0.408613 0.000000 
1.072852 0.238609 -0.509183 147 121 90 -0.755268 0.236119 0.611407 0.000000 
1.122081 0.231759 -0.474001 65 56 34 0.672240 -0.336934 -0.659218 0.000000 
1.137715 0.225936 -0.444339 115 100 76 0.286967 -0.933691 -0.214175 0.000000 
0.990255 0.244752 -0.587894 135 124 112 0.658515 0.216392 -0.720786 0.000000 
0.868467 0.272714 -0.726940 72 63 37 0.779829 -0.191510 -0.595979 0.000000 
1.271479 0.203976 -0.327764 81 76 57 0.171631 -0.984864 0.024190 0.000000 
1.254714 0.205712 -0.353303 65 61 46 0.437956 -0.852863 -0.284288 0.000000 
1.289577 0.212110 -0.314731 56 52 35 -0.364484 -0.873846 0.321783 0.000000 
1.181739 0.215042 -0.419271 76 65 52 0.181326 -0.834698 -0.520000 0.000000 
1.009571 0.253732 -0.573990 122 105 84 -0.132144 0.855307 0.500986 0.000000 
1.293780 0.207535 -0.319018 98 93 78 0.546413 -0.031816 -0.836911 0.000000 
1.330408 0.206424 -0.280422 57 53 39 0.496330 0.654483 -0.570359 0.000000 
1.192368 0.219274 -0.417935 74 70 54 0.704883 0.404441 -0.582725 0.000000 
1.006095 0.241840 -0.584942 81 67 50 0.311891 -0.775728 -0.548608 0.000000 
1.330990 0.206658 -0.278240 105 94 72 0.253293 0.929686 -0.267444 0.000000 
1.111787 0.222694 -0.471106 104 90 74 -0.419849 -0.856616 0.299892 0.000000 
1.171439 0.221538 -0.431670 85 71 56 0.382002 -0.363292 -0.849761 0.000000 
1.333015 0.200895 -0.271448 120 110 97 0.605765 0.435550 -0.665841 0.000000 
1.321372 0.205895 -0.290179 100 88 67 0.490829 0.871255 0.001330 0.000000 
1.228546 0.206939 -0.378949 74 66 48 -0.294636 0.943650 0.150712 0.000000 
1.228474 0.215324 -0.370399 52 43 23 -0.367851 -0.907366 0.203400 0.000000 
1.252741 0.211620 -0.359534 76 73 58 -0.252240 -0.824810 0.506028 0.000000 
1.230637 0.208863 -0.382426 73 66 50 0.361982 -0.808479 -0.464038 0.000000 
1.284845 0.206316 -0.325952 99 89 75 0.310482 -0.606486 -0.731966 0.000000 
1.072136 0.243403 -0.513095 112 92 69 -0.463989 0.520532 0.716771 0.000000 
0.871619 0.276716 -0.725329 77 65 39 -0.701844 0.304939 0.643760 0.000000 
1.026112 0.241239 -0.557356 102 88 69 -0.808246 -0.401722 0.430531 0.000000 
1.189174 0.221234 -0.418941 119 107 88 0.063992 0.964897 0.254713 0.000000 
1.251539 0.205841 -0.350543 78 65 50 -0.118038 -0.982032 -0.147244 0.000000 
1.147579 0.221958 -0.432133 113 103 89 0.792843 0.138338 -0.593517 0.000000 
1.138679 0.226214 -0.444246 115 98 73 -0.125208 0.964229 0.233635 0.000000 
1.206772 0.217910 -0.384830 106 87 60 -0.025151 -0.973718 0.226363 0.000000 
0.926642 0.267335 -0.672493 75 65 40 -0.661482 -0.359465 0.658199 0.000000 
1.225144 0.217356 -0.392335 82 76 61 0.801090 0.495306 -0.336044 0.000000 
0.975524 0.249083 -0.618842 63 57 43 0.550540 -0.444091 -0.706887 0.000000 
0.914792 0.263793 -0.677821 61 50 26 0.495087 -0.659557 -0.565574 0.000000 
0.923486 0.271944 -0.665800 78 67 45 -0.321308 -0.939724 0.116961 0.000000 
0.980168 0.254832 -0.614991 112 106 88 0.649084 0.527697 -0.547928 0.000000 
1.100114 0.236288 -0.485872 116 103 83 0.485938 -0.650720 -0.583462 0.000000 
1.209428 0.210144 -0.376618 88 75 59 0.475681 0.802412 -0.360365 0.000000 
1.009496 0.239263 -0.574179 95 81 63 -0.231025 -0.959745 0.159738 0.000000 
1.358738 0.191537 -0.260850 120 111 98 -0.435076 -0.527716 0.729538 0.000000 
0.955485 0.250029 -0.621114 140 116 89 -0.566128 0.186686 0.802900 0.000000 
1.215267 0.217245 -0.383200 83 68 44 -0.283873 -0.957599 0.049205 0.000000 
1.242301 0.214838 -0.367276 87 79 59 0.538740 0.822446 -0.182598 0.000000 
1.376671 0.200147 -0.238234 105 104 96 -0.982711 -0.181550 0.036310 0.000000 
1.236156 0.213476 -0.359023 86 71 48 -0.239167 -0.920864 0.307909 0.000000 
1.332021 0.197456 -0.284396 78 75 59 0.447200 -0.556922 -0.699893 0.000000 
0.906887 0.277505 -0.686704 109 92 66 0.426932 0.901604 -0.069564 0.000000 
1.202660 0.221881 -0.383452 133 119 100 0.170873 -0.985100 0.019496 0.000000 
0.863240 0.267764 -0.732252 77 68 47 -0.616369 0.592727 0.518425 0.000000 
1.276989 0.211921 -0.313339 61 60 43 0.465392 -0.391315 -0.793903 0.000000 
1.360389 0.201508 -0.250041 85 80 63 0.406379 -0.906323 0.115909 0.000000 
0.902526 0.252410 -0.673837 73 69 51 -0.556001 0.736415 0.385429 0.000000 
0.861762 0.272610 -0.714788 56 48 18 0.560952 -0.773891 -0.293983 0.000000 
1.226312 0.215297 -0.360642 99 91 76 -0.043605 0.920982 0.387156 0.000000 
1.311248 0.204148 -0.298717 88 75 62 0.297156 -0.947435 0.118596 0.000000 
1.076605 0.232458 -0.504312 120 106 91 0.625741 0.384690 -0.678574 0.000000 
1.163620 0.215208 -0.423352 85 72 56 0.232563 0.970860 -0.057833 0.000000 
1.198812 0.218044 -0.392227 102 82 55 0.353435 0.935263 -0.019139 0.000000 
0.952497 0.253140 -0.620596 93 85 64 -0.566758 0.115695 0.815721 0.000000 
1.361709 0.202225 -0.245402 134 121 98 0.456495 -0.863599 -0.214029 0.000000 
1.191545 0.220239 -0.393018 114 99 76 0.088900 -0.753466 -0.651449 0.000000 
1.059732 0.235017 -0.534234 82 67 47 0.360475 -0.832714 -0.420292 0.000000 
0.906179 0.263025 -0.668488 114 100 81 -0.848599 0.321133 0.420421 0.000000 
1.021737 0.237790 -0.563255 95 85 71 0.410610 0.797066 -0.442815 0.000000 
0.945224 0.264029 -0.639059 82 69 44 -0.440670 0.816115 0.373854 0.000000 
0.870014 0.284687 -0.732377 74 63 38 -0.671131 0.409307 0.618103 0.000000 
1.134991 0.220618 -0.453920 77 64 39 -0.397637 0.825373 0.400805 0.000000 
1.202703 0.218199 -0.379458 131 120 105 -0.464786 0.698013 0.544750 0.000000 
1.064539 0.246741 -0.532536 85 75 54 0.309465 0.841310 -0.443204 0.000000 
1.199071 0.218284 -0.405834 50 43 28 -0.153480 -0.821044 -0.549846 0.000000 
0.870540 0.295109 -0.728197 117 104 73 -0.068313 0.981552 0.178573 0.000000 
0.942463 0.249565 -0.639962 80 68 49 0.078161 -0.982418 -0.169548 0.000000 
1.080260 0.245318 -0.511293 123 102 75 0.203786 -0.938524 0.278646 0.000000 
1.065013 0.246775 -0.522873 109 94 74 0.244805 -0.962381 -0.117869 0.000000 
0.866476 0.274618 -0.717285 61 50 18 -0.378474 0.828209 0.413313 0.000000 
0.842277 0.282864 -0.741488 76 66 27 0.907794 -0.339512 -0.246255 0.000000 
0.896758 0.266121 -0.696949 77 64 39 0.680930 -0.427871 -0.594357 0.000000 
1.196789 0.217920 -0.405655 66 52 33 -0.154842 -0.924864 -0.347347 0.000000 
1.189866 0.224321 -0.420074 83 79 61 -0.719487 0.009742 0.694437 0.000000 
1.280570 0.205189 -0.321510 83 73 61 0.177199 0.977694 0.112763 0.000000 
1.285361 0.206167 -0.312505 93 84 71 -0.496448 -0.725578 0.476524 0.000000 
1.119875 0.238651 -0.472091 91 82 63 -0.293208 0.719401 0.629676 0.000000 
0.867700 0.282880 -0.733499 74 63 37 -0.588396 0.445048 0.675072 0.000000 
0.921465 0.256950 -0.654507 120 101 69 0.690305 -0.004150 -0.723506 0.000000 
1.016358 0.236019 -0.568334 85 74 52 0.668549 -0.743604 -0.009729 0.000000 
1.308599 0.204354 -0.304747 75 68 45 -0.449334 0.851128 0.271441 0.000000 
1.240272 0.215332 -0.346660 86 77 59 0.346536 -0.900993 -0.261008 0.000000 
1.294902 0.205613 -0.307261 82 71 57 0.381354 0.815363 -0.435605 0.000000 
1.229091 0.209393 -0.380669 82 72 59 -0.216882 0.972869 0.080556 0.000000 
1.030556 0.233817 -0.552719 103 89 68 -0.038484 -0.995083 -0.091262 0.000000 
1.195424 0.217701 -0.405616 54 43 25 0.114169 0.965948 0.232187 0.000000 
1.144063 0.217165 -0.440282 92 80 63 0.363930 0.926737 -0.093350 0.000000 
1.215541 0.217570 -0.380541 73 58 34 0.215945 0.972375 -0.088625 0.000000 
1.233721 0.204772 -0.354114 91 83 64 -0.068366 -0.994113 0.084057 0.000000 
1.058906 0.247230 -0.534156 69 60 40 0.586353 0.809857 0.017936 0.000000 
1.170537 0.217156 -0.408285 150 125 98 0.673712 0.515784 -0.529225 0.000000 
0.909824 0.275678 -0.677212 85 73 47 0.004001 0.873520 0.486771 0.000000 
1.137583 0.222474 -0.455673 60 52 32 -0.482222 0.695802 0.532280 0.000000 
0.976270 0.256719 -0.607809 116 101 78 0.070865 -0.981300 -0.178964 0.000000 
1.214434 0.214194 -0.401121 79 74 61 -0.465656 0.559121 0.685966 0.000000 
0.859068 0.278647 -0.725838 73 60 35 0.392527 -0.476524 -0.786669 0.000000 
0.850495 0.285081 -0.752294 85 76 50 0.704992 -0.044151 -0.707840 0.000000 
1.121188 0.229995 -0.474393 85 71 55 0.737085 -0.292596 -0.609174 0.000000 
1.095158 0.240542 -0.500720 65 56 39 0.745285 0.328184 -0.580384 0.000000 
0.946593 0.263503 -0.637303 79 69 47 0.139206 -0.758898 -0.636157 0.000000 
1.036492 0.248865 -0.547887 113 96 70 0.368641 -0.537534 -0.758394 0.000000 
1.217227 0.212777 -0.397920 77 71 59 0.521939 -0.375601 -0.765835 0.000000 
1.234778 0.212824 -0.375942 108 95 73 -0.506112 -0.848438 0.154932 0.000000 
0.943764 0.249474 -0.634952 85 71 53 0.382706 0.845078 -0.373334 0.000000 
1.234290 0.205973 -0.359334 93 82 66 0.293774 0.955694 0.018593 0.000000 
0.864519 0.271613 -0.711044 69 59 23 -0.423134 0.841585 0.335697 0.000000 
1.367764 0.199366 -0.252373 48 40 31 -0.685430 0.162619 0.709747 0.000000 
0.983137 0.254455 -0.609439 109 99 81 0.678253 0.564374 -0.470590 0.000000 
0.951090 0.264709 -0.640655 85 77 56 0.325885 0.940410 0.097100 0.000000 
1.016312 0.248821 -0.579408 73 67 46 0.661850 0.283650 -0.693900 0.000000 
1.286910 0.204394 -0.315190 76 67 46 0.014405 0.991743 -0.127431 0.000000 
0.997488 0.241067 -0.595254 113 100 81 0.530298 -0.644775 -0.550500 0.000000 
0.857968 0.262981 -0.729145 85 83 71 -0.075931 0.890460 0.448682 0.000000 
0.912813 0.257984 -0.659202 115 107 94 0.770552 -0.178524 -0.611864 0.000000 
1.353284 0.202097 -0.256644 75 70 50 0.324797 0.860482 0.392527 0.000000 
1.293904 0.210570 -0.310225 92 80 58 0.252372 0.967624 0.003588 0.000000 
0.935483 0.266876 -0.656023 72 63 43 -0.667086 -0.698777 0.258278 0.000000 
1.361782 0.195888 -0.244042 97 91 68 0.299457 0.861513 -0.410025 0.000000 
1.262153 0.213086 -0.342143 89 75 54 -0.527904 -0.847167 0.060212 0.000000 
1.195745 0.219459 -0.392204 75 62 39 -0.393726 -0.915987 -0.077122 0.000000 
0.910397 0.258621 -0.677795 60 51 26 0.602461 -0.592335 -0.534958 0.000000 
0.955987 0.259543 -0.628938 116 98 72 -0.401060 0.847376 0.348002 0.000000 
1.220562 0.216085 -0.364597 109 95 76 -0.195484 0.958801 0.206122 0.000000 
1.363466 0.200236 -0.242353 129 123 116 -0.683041 0.049909 0.728673 0.000000 
0.893759 0.283247 -0.699021 84 71 46 -0.485207 -0.873372 -0.042370 0.000000 
1.015138 0.237135 -0.567003 146 128 105 0.392581 -0.724386 -0.566697 0.000000 
0.843468 0.270983 -0.744904 67 61 36 0.242814 0.970072 0.001184 0.000000 
0.928042 0.270865 -0.660984 108 95 73 0.340657 0.937792 0.067079 0.000000 
1.277322 0.206062 -0.319829 89 76 58 -0.411043 -0.833110 0.370096 0.000000 
0.936567 0.265874 -0.648116 114 99 73 0.137693 0.919345 0.368572 0.000000 
0.902567 0.255597 -0.681010 68 61 40 -0.106549 0.909123 0.402671 0.000000 
1.167678 0.222379 -0.435574 58 52 37 -0.626285 0.293121 0.722390 0.000000 
1.003724 0.247604 -0.572882 100 92 73 0.705752 -0.089132 -0.702830 0.000000 
0.978677 0.257095 -0.605582 120 102 77 0.073476 0.952608 0.295193 0.000000 
1.306423 0.203958 -0.306793 68 64 41 0.615155 -0.661833 -0.428441 0.000000 
0.992997 0.256984 -0.592560 126 108 85 0.486566 -0.463475 -0.740570 0.000000 
1.173308 0.212401 -0.414098 85 74 60 0.074678 0.985043 0.155284 0.000000 
1.170699 0.210995 -0.417362 80 75 60 -0.024154 0.985699 -0.166775 0.000000 
1.123382 0.226848 -0.454459 118 104 80 -0.748805 0.012503 0.662672 0.000000 
1.172846 0.210442 -0.419420 119 109 92 0.236674 -0.961078 -0.142527 0.000000 
1.323952 0.207005 -0.282465 99 93 77 0.501924 -0.834506 -0.227315 0.000000 
1.197527 0.217402 -0.384401 102 89 64 0.792146 -0.254674 -0.554658 0.000000 
1.272652 0.209052 -0.320369 99 84 66 -0.613459 -0.452990 0.646890 0.000000 
1.246163 0.215432 -0.361580 88 80 59 -0.049948 -0.997891 -0.041446 0.000000 
0.939059 0.263479 -0.655010 69 59 38 0.705390 0.586448 -0.398124 0.000000 
1.143964 0.227297 -0.441550 96 79 53 -0.058173 0.944988 0.321891 0.000000 
1.116512 0.222344 -0.472673 74 65 42 0.230667 -0.838651 -0.493414 0.000000 
0.881966 0.289890 -0.714020 122 110 82 0.187550 -0.923651 -0.334206 0.000000 
1.230147 0.209579 -0.387206 136 126 114 -0.487858 0.732614 0.474628 0.000000 
0.941505 0.265947 -0.652031 79 69 47 0.713781 0.663801 -0.223349 0.000000 
1.064485 0.236145 -0.517261 133 115 90 0.763218 0.076756 -0.641566 0.000000 
1.194582 0.213488 -0.410229 72 63 47 0.137754 -0.966850 -0.214999 0.000000 
1.158023 0.227958 -0.435587 64 56 40 -0.182348 0.920223 0.346321 0.000000 
1.312447 0.208445 -0.292301 111 103 83 -0.030169 0.971450 -0.235320 0.000000 
1.147319 0.231986 -0.446346 79 73 56 -0.223856 0.938526 0.262787 0.000000 
0.956002 0.247146 -0.639701 110 100 86 0.446170 -0.670090 -0.593222 0.000000 
0.930474 0.250881 -0.649617 83 71 55 -0.143805 -0.920073 -0.364399 0.000000 
1.279051 0.213763 -0.318229 85 81 66 -0.143544 -0.988731 -0.042489 0.000000 
1.223369 0.210883 -0.386147 79 67 52 -0.210140 -0.919184 -0.333079 0.000000 
0.900149 0.257101 -0.682939 73 62 38 0.046818 -0.996236 -0.072948 0.000000 
1.201968 0.217512 -0.405509 63 54 39 -0.279208 -0.713178 -0.642977 0.000000 
0.893391 0.278375 -0.690399 104 85 51 0.495288 -0.673256 -0.549014 0.000000 
1.215677 0.210149 -0.385076 72 57 35 -0.244465 0.903203 0.352791 0.000000 
1.145667 0.223706 -0.450110 80 69 55 0.305197 -0.673370 -0.673370 0.000000 
0.919564 0.260627 -0.655956 117 99 66 -0.496238 0.401872 0.769576 0.000000 
