ply
format ascii 1.0
comment Created by Open3D
obj_info Generated by CloudCompare!
element vertex 632
property float x
property float y
property float z
property uchar red
property uchar green
property uchar blue
property float nx
property float ny
property float nz
property float scalar_leaf2
end_header
0.660179 0.434165 -1.941100 51 40 27 0.448680 0.829664 -0.332181 0.000000 
0.678330 0.362967 -2.154490 50 39 28 0.273709 0.916707 -0.291087 0.000000 
0.656385 0.444160 -1.902710 91 87 83 -0.275739 -0.878448 0.390254 0.000000 
0.674056 0.395469 -2.054561 47 35 22 -0.312077 -0.913008 0.262726 0.000000 
0.671437 0.379373 -2.132151 66 54 40 0.695929 0.683418 -0.220508 0.000000 
0.664301 0.392510 -2.077568 59 47 33 -0.709859 -0.695039 0.114111 0.000000 
0.660011 0.410493 -2.029278 58 47 34 -0.960055 -0.249484 -0.126701 0.000000 
0.650040 0.478188 -1.838050 84 75 62 0.696932 0.681270 -0.223958 0.000000 
0.672211 0.426598 -1.958205 67 56 43 -0.270423 -0.934571 0.231191 0.000000 
0.654296 0.453152 -1.905307 62 53 41 0.872988 0.425225 -0.238907 0.000000 
0.648480 0.481563 -1.827775 83 74 62 0.838305 0.527060 -0.139473 0.000000 
0.660590 0.423438 -2.006286 62 52 41 -0.983306 -0.139090 -0.117319 0.000000 
0.659043 0.421187 -1.996973 52 42 30 0.899696 0.429931 -0.075547 0.000000 
0.664954 0.411206 -2.012483 55 43 29 0.426013 0.785614 -0.448691 0.000000 
0.658048 0.469913 -1.841202 94 84 70 0.522139 0.807513 -0.274397 0.000000 
0.658783 0.433722 -1.954387 61 52 40 -0.771099 -0.634772 0.049703 0.000000 
0.677880 0.377295 -2.119850 49 37 25 0.408031 0.904399 -0.124793 0.000000 
0.659618 0.425453 -1.993826 54 45 35 -0.995059 -0.063231 0.076543 0.000000 
0.669744 0.401525 -2.037878 49 37 24 0.459144 0.859578 -0.224303 0.000000 
0.670929 0.423807 -1.970829 52 41 29 0.001225 0.953933 -0.300017 0.000000 
0.677780 0.368763 -2.143058 50 38 26 -0.342158 -0.785517 0.515646 0.000000 
0.654398 0.462582 -1.884635 96 88 75 0.687566 0.681244 -0.251317 0.000000 
0.651452 0.456749 -1.893451 85 73 59 0.803012 0.575716 -0.154023 0.000000 
0.655963 0.469590 -1.842038 84 74 60 -0.635512 -0.756274 0.155481 0.000000 
0.655852 0.436240 -1.939611 59 50 42 -0.805416 -0.566662 0.173776 0.000000 
0.665304 0.445532 -1.905292 78 67 53 -0.084470 -0.952560 0.292396 0.000000 
0.658261 0.426547 -1.989125 79 68 53 -0.988895 -0.139297 0.051805 0.000000 
0.667525 0.373305 -2.154113 61 49 35 -0.613798 -0.663701 0.427496 0.000000 
0.659791 0.451775 -1.889896 60 53 42 0.260182 0.862708 -0.433636 0.000000 
0.653297 0.444672 -1.912623 56 50 41 0.661019 0.743462 0.101582 0.000000 
0.652069 0.449916 -1.914231 103 92 77 0.957264 0.094561 0.273319 0.000000 
0.664253 0.395945 -2.063085 55 43 29 0.568497 0.779518 -0.262989 0.000000 
0.670985 0.392779 -2.065482 46 35 22 0.335127 0.905867 -0.259028 0.000000 
0.661917 0.397212 -2.083519 59 49 37 -0.976583 -0.207448 -0.057018 0.000000 
0.670088 0.381709 -2.107039 59 45 31 -0.519509 -0.847621 0.107931 0.000000 
0.653249 0.463746 -1.862085 62 50 37 -0.776482 -0.606294 0.171707 0.000000 
0.663011 0.448875 -1.896436 72 62 48 -0.263659 -0.875347 0.405281 0.000000 
0.687025 0.364622 -2.148648 46 35 23 0.063378 0.912917 -0.403194 0.000000 
0.660543 0.427462 -1.965726 52 41 29 0.542419 0.814392 -0.206272 0.000000 
0.666783 0.425497 -1.967448 45 34 23 -0.307428 -0.933412 0.185013 0.000000 
0.652392 0.467396 -1.857915 69 62 55 0.779173 0.549724 -0.301153 0.000000 
0.656929 0.462213 -1.862440 69 59 45 -0.643787 -0.736865 0.206322 0.000000 
0.662145 0.416424 -2.001136 54 42 29 0.673447 0.738392 -0.035296 0.000000 
0.670247 0.381988 -2.103556 58 45 31 -0.443312 -0.857679 0.260503 0.000000 
0.688156 0.377618 -2.104994 78 67 54 0.232902 0.930194 -0.283716 0.000000 
0.656355 0.458581 -1.868992 77 72 66 -0.624074 -0.770039 0.132560 0.000000 
0.676607 0.377320 -2.124644 55 42 30 0.470470 0.869569 -0.150026 0.000000 
0.691379 0.364568 -2.146891 60 50 38 -0.071862 -0.912508 0.402697 0.000000 
0.682056 0.381169 -2.098433 52 41 29 -0.198845 -0.914116 0.353344 0.000000 
0.689273 0.372701 -2.130122 46 36 25 -0.342572 -0.908180 0.240529 0.000000 
0.659103 0.426552 -1.983506 72 60 46 0.918483 0.381903 -0.102662 0.000000 
0.672118 0.379732 -2.128110 65 52 38 0.695271 0.710096 -0.111184 0.000000 
0.658968 0.434728 -1.939956 53 44 32 0.466976 0.832436 -0.298302 0.000000 
0.665849 0.413038 -2.009836 55 42 29 -0.441111 -0.806833 0.392990 0.000000 
0.658154 0.422003 -2.005508 80 68 52 0.949264 0.313920 -0.018760 0.000000 
0.668627 0.389269 -2.093494 64 51 36 0.737533 0.655416 -0.162713 0.000000 
0.674326 0.397333 -2.046144 47 35 23 -0.303714 -0.914048 0.268838 0.000000 
0.671684 0.382606 -2.100534 57 45 31 0.394495 0.846683 -0.357073 0.000000 
0.673793 0.392472 -2.062624 43 32 20 -0.201909 -0.943615 0.262344 0.000000 
0.673011 0.428166 -1.953406 77 65 50 0.276132 0.934923 -0.222868 0.000000 
0.652059 0.458528 -1.886651 80 69 55 -0.831989 -0.469848 0.295021 0.000000 
0.658960 0.429438 -1.970750 67 54 39 0.863691 0.492518 -0.107069 0.000000 
0.665149 0.390819 -2.098286 67 55 39 -0.999182 -0.007144 0.039804 0.000000 
0.661044 0.407020 -2.044039 52 41 29 0.962959 0.264219 -0.053846 0.000000 
0.667164 0.443982 -1.904640 94 84 69 -0.059494 -0.958229 0.279747 0.000000 
0.670575 0.426321 -1.960294 55 45 32 -0.148818 -0.966667 0.208345 0.000000 
0.652504 0.462258 -1.885678 97 86 71 -0.830491 -0.490252 0.264458 0.000000 
0.659987 0.429828 -1.986439 57 49 39 0.997236 0.074296 0.001046 0.000000 
0.673935 0.389387 -2.077684 48 37 25 0.159828 0.975329 -0.152277 0.000000 
0.660526 0.426811 -1.978279 60 48 34 -0.851493 -0.523040 -0.037261 0.000000 
0.660353 0.411426 -2.017429 55 43 30 -0.839905 -0.433247 0.326890 0.000000 
0.661728 0.407282 -2.034050 56 45 33 0.870651 0.488617 -0.056751 0.000000 
0.662644 0.397831 -2.082158 58 48 35 0.961723 0.249815 -0.112611 0.000000 
0.667306 0.423970 -1.966314 57 47 34 0.293203 0.932919 -0.209030 0.000000 
0.656554 0.442871 -1.915184 58 50 40 0.604148 0.796814 -0.009633 0.000000 
0.651260 0.479197 -1.820031 102 92 78 -0.535448 -0.773425 0.339278 0.000000 
0.657646 0.441754 -1.926795 64 53 39 -0.660651 -0.702042 0.265852 0.000000 
0.656080 0.473218 -1.827558 99 90 76 0.443832 0.832772 -0.330913 0.000000 
0.661079 0.419448 -1.988061 54 43 31 0.733011 0.593852 -0.331716 0.000000 
0.663404 0.411739 -2.011143 51 40 28 -0.495042 -0.711727 0.498376 0.000000 
0.668033 0.421622 -1.977800 47 37 24 -0.272734 -0.911545 0.307737 0.000000 
0.659218 0.423122 -1.998386 54 44 34 -0.948594 -0.316198 0.013748 0.000000 
0.680082 0.374222 -2.133322 50 39 27 -0.419508 -0.858993 0.293502 0.000000 
0.664875 0.392839 -2.076473 60 47 33 -0.758664 -0.627386 0.175546 0.000000 
0.672477 0.421036 -1.968007 92 87 80 -0.015401 -0.975029 0.221544 0.000000 
0.663285 0.405229 -2.036614 57 46 34 -0.681731 -0.709306 0.179242 0.000000 
0.680326 0.394343 -2.053606 54 43 31 -0.168939 -0.956433 0.238110 0.000000 
0.656152 0.444837 -1.908526 59 48 35 0.379606 0.914696 -0.138675 0.000000 
0.661374 0.416264 -2.009109 59 47 33 -0.695895 -0.552377 0.458923 0.000000 
0.652536 0.463057 -1.874567 67 58 46 -0.716419 -0.686630 0.123623 0.000000 
0.663179 0.422907 -1.980673 48 38 26 -0.549424 -0.809597 0.206608 0.000000 
0.672870 0.405652 -2.020678 52 39 25 0.147896 0.930223 -0.335875 0.000000 
0.652789 0.470055 -1.845691 66 58 47 0.729832 0.669886 -0.136375 0.000000 
0.667004 0.417789 -1.987610 44 34 22 0.372335 0.860541 -0.347615 0.000000 
0.660992 0.435977 -1.933405 53 43 30 0.411660 0.840538 -0.352181 0.000000 
0.666922 0.417291 -1.986407 44 34 23 0.348565 0.867574 -0.354707 0.000000 
0.665579 0.388340 -2.106028 58 46 33 0.962000 0.272587 0.015891 0.000000 
0.658278 0.433180 -1.962433 78 67 53 0.861337 0.451033 -0.233813 0.000000 
0.674643 0.397102 -2.041147 54 44 32 -0.382697 -0.883955 0.268638 0.000000 
0.657415 0.442734 -1.942447 50 44 37 0.988823 0.144845 -0.035356 0.000000 
0.659574 0.417389 -2.025056 82 70 55 0.946701 -0.270292 0.175214 0.000000 
0.688857 0.373239 -2.125003 50 40 28 -0.297141 -0.930854 0.212646 0.000000 
0.658598 0.411891 -2.021030 54 43 32 0.988677 0.137928 -0.059112 0.000000 
0.672934 0.388602 -2.090757 59 47 32 -0.248578 -0.949487 0.191527 0.000000 
0.667630 0.409109 -2.012064 46 35 24 0.340597 0.797924 -0.497303 0.000000 
0.671306 0.387535 -2.093214 60 48 34 -0.443583 -0.835441 0.324458 0.000000 
0.661514 0.417293 -2.022133 51 42 34 0.985371 -0.146555 0.086980 0.000000 
0.658768 0.437780 -1.934864 57 46 31 0.651465 0.664593 -0.365936 0.000000 
0.659657 0.435311 -1.972302 73 65 53 0.988731 0.143544 -0.042489 0.000000 
0.663136 0.413199 -2.002268 63 53 45 0.533355 0.844128 -0.054595 0.000000 
0.665111 0.405835 -2.030580 57 44 30 0.644831 0.762074 -0.058621 0.000000 
0.661002 0.444704 -1.908870 58 47 33 0.094354 0.985341 -0.142128 0.000000 
0.678560 0.375182 -2.125737 54 42 30 0.405061 0.898053 -0.171538 0.000000 
0.652375 0.457525 -1.898357 96 84 69 0.855097 0.499657 -0.138389 0.000000 
0.668387 0.394399 -2.059809 56 44 31 -0.477573 -0.832253 0.281566 0.000000 
0.670054 0.386945 -2.087855 67 56 44 -0.235709 -0.959953 0.151433 0.000000 
0.662091 0.458822 -1.867932 95 85 71 -0.514311 -0.838192 0.181433 0.000000 
0.662230 0.433822 -1.933547 79 72 64 -0.358907 -0.864150 0.352746 0.000000 
0.654367 0.454539 -1.893103 61 51 37 -0.744277 -0.639492 0.192618 0.000000 
0.659181 0.426069 -1.977982 57 48 38 0.787648 0.615999 0.012458 0.000000 
0.660931 0.401478 -2.064240 71 59 44 0.996107 0.081470 -0.033674 0.000000 
0.663862 0.400182 -2.079685 68 57 44 0.972600 0.230194 -0.032541 0.000000 
0.658463 0.424456 -1.991875 66 55 40 -0.982439 -0.142435 0.120522 0.000000 
0.667565 0.384102 -2.117564 60 46 33 0.875895 0.447484 0.180461 0.000000 
0.661414 0.416232 -1.999586 51 40 28 0.683779 0.724601 -0.086019 0.000000 
0.659649 0.409962 -2.023137 54 43 31 0.934613 0.341932 -0.097886 0.000000 
0.679719 0.389536 -2.083914 43 32 20 0.218586 0.929343 -0.297559 0.000000 
0.669106 0.411217 -2.007309 52 42 30 0.352674 0.894334 -0.275294 0.000000 
0.664840 0.432275 -1.942235 47 36 23 -0.312526 -0.899068 0.306601 0.000000 
0.668516 0.416827 -1.985664 47 37 26 0.273672 0.886816 -0.372373 0.000000 
0.651250 0.458470 -1.894858 96 86 72 -0.805925 -0.567913 0.167211 0.000000 
0.670276 0.391071 -2.076303 54 41 27 -0.412846 -0.896178 0.162549 0.000000 
0.654075 0.450720 -1.916961 73 70 65 0.939381 0.083471 0.332559 0.000000 
0.667712 0.444391 -1.911102 80 68 54 0.260547 0.937691 -0.229894 0.000000 
0.682033 0.389441 -2.071605 57 46 34 -0.094499 -0.978125 0.185316 0.000000 
0.661969 0.413396 -2.040931 62 52 41 -0.989624 0.132180 -0.056320 0.000000 
0.666935 0.438686 -1.919443 82 72 59 0.191036 0.932871 -0.305379 0.000000 
0.666066 0.422295 -1.979949 44 33 21 0.424518 0.868676 -0.255315 0.000000 
0.658667 0.424500 -1.989994 76 64 48 -0.991222 -0.102223 0.083846 0.000000 
0.656274 0.463769 -1.853556 84 79 74 0.726556 0.644956 -0.236955 0.000000 
0.666016 0.403693 -2.032409 53 42 30 0.532435 0.832023 -0.155726 0.000000 
0.657613 0.438372 -1.932911 59 49 35 0.697178 0.642180 -0.318664 0.000000 
0.661112 0.394559 -2.083301 59 47 34 -0.863136 -0.503610 0.037050 0.000000 
0.663905 0.414847 -2.048531 86 75 60 0.992943 -0.118544 -0.003263 0.000000 
0.651464 0.472694 -1.851742 82 72 59 0.906751 0.414398 -0.077956 0.000000 
0.669249 0.428765 -1.951591 62 50 36 0.283349 0.943129 -0.173842 0.000000 
0.672114 0.420526 -1.978365 54 44 31 -0.247630 -0.877960 0.409715 0.000000 
0.673326 0.414759 -1.990210 59 48 35 -0.141144 -0.947681 0.286321 0.000000 
0.652614 0.448253 -1.912801 55 50 41 0.883424 0.464452 0.062019 0.000000 
0.659870 0.432398 -1.954841 60 50 38 0.751583 0.656737 -0.061794 0.000000 
0.679055 0.416209 -1.988122 91 80 66 -0.081330 -0.931961 0.353319 0.000000 
0.659406 0.418099 -2.021048 75 64 49 0.972110 -0.210016 0.104379 0.000000 
0.677971 0.398998 -2.034126 69 60 47 -0.289999 -0.919052 0.266915 0.000000 
0.656540 0.445421 -1.905341 52 42 31 -0.455412 -0.810153 0.369123 0.000000 
0.663235 0.447207 -1.895829 77 67 54 0.210117 0.871762 -0.442587 0.000000 
0.665072 0.398891 -2.058819 59 47 34 0.818525 0.510996 -0.262487 0.000000 
0.667201 0.428165 -1.956520 43 33 22 0.344693 0.916797 -0.201667 0.000000 
0.655639 0.463023 -1.860749 62 52 39 0.708218 0.670697 -0.220439 0.000000 
0.675375 0.405898 -2.019576 59 46 31 -0.124489 -0.928877 0.348842 0.000000 
0.660402 0.452670 -1.890178 64 54 41 -0.230085 -0.867706 0.440620 0.000000 
0.659786 0.449019 -1.894295 58 51 40 -0.359551 -0.825224 0.435579 0.000000 
0.663324 0.423706 -1.978163 48 38 25 0.505514 0.841524 -0.190505 0.000000 
0.661946 0.425082 -1.979249 58 45 31 0.680730 0.731679 -0.035381 0.000000 
0.658903 0.419936 -2.008574 51 41 30 0.956815 0.275780 -0.091927 0.000000 
0.658262 0.436255 -1.959772 61 54 43 -0.916370 -0.387643 0.099993 0.000000 
0.667089 0.429726 -1.949702 57 44 29 0.309454 0.933913 -0.179012 0.000000 
0.660203 0.419650 -1.991264 63 50 36 -0.831408 -0.511049 0.218149 0.000000 
0.659675 0.423054 -2.005247 55 46 36 -0.966491 -0.255872 0.020615 0.000000 
0.650473 0.474463 -1.842802 79 70 57 0.756807 0.636440 -0.148954 0.000000 
0.654111 0.455411 -1.888884 57 47 33 0.517740 0.756194 -0.400146 0.000000 
0.669249 0.428765 -1.951591 62 50 36 0.283349 0.943129 -0.173842 0.000000 
0.658098 0.431532 -1.971406 53 44 34 0.927696 0.365456 -0.076304 0.000000 
0.660483 0.425086 -2.004450 71 62 50 -0.967088 -0.253603 0.020628 0.000000 
0.661802 0.399664 -2.060011 58 48 37 0.859531 0.462130 -0.218270 0.000000 
0.665613 0.414627 -1.998936 48 36 23 0.373142 0.912283 -0.168836 0.000000 
0.659125 0.427621 -1.969234 61 50 39 -0.692618 -0.707642 0.139726 0.000000 
0.659032 0.427117 -1.977930 57 47 36 0.878384 0.477529 0.020177 0.000000 
0.689856 0.368871 -2.139096 51 41 30 -0.278331 -0.883136 0.377627 0.000000 
0.669106 0.411217 -2.007309 52 42 30 -0.352674 -0.894334 0.275294 0.000000 
0.681122 0.386066 -2.086087 55 43 30 0.260158 0.921332 -0.288904 0.000000 
0.659701 0.414042 -2.015068 68 55 41 0.900703 0.340528 -0.269769 0.000000 
0.654706 0.448473 -1.902281 58 48 35 0.597610 0.715495 -0.361841 0.000000 
0.652246 0.473641 -1.845953 74 66 54 0.779531 0.618652 -0.097990 0.000000 
0.669504 0.412480 -1.995847 55 46 34 0.188588 0.956317 -0.223364 0.000000 
0.665427 0.398224 -2.054668 58 47 35 0.669213 0.709771 -0.219951 0.000000 
0.662116 0.430394 -1.952629 56 45 33 0.412065 0.903749 -0.115937 0.000000 
0.654868 0.449328 -1.899100 51 42 29 0.762737 0.560411 -0.322758 0.000000 
0.654929 0.444826 -1.930161 55 48 39 0.903157 0.423653 -0.069474 0.000000 
0.657774 0.439463 -1.928465 62 53 41 -0.651463 -0.696503 0.300799 0.000000 
0.681898 0.398556 -2.043169 73 62 47 0.271710 0.921515 -0.277461 0.000000 
0.653927 0.468262 -1.850296 64 56 45 0.883935 0.441244 -0.154797 0.000000 
0.665432 0.383216 -2.106570 63 48 34 -0.766853 -0.625788 0.142566 0.000000 
0.656029 0.437954 -1.939026 57 48 36 -0.871079 -0.466805 0.152693 0.000000 
0.657702 0.449108 -1.923599 60 54 48 0.929515 0.290031 -0.227781 0.000000 
0.661131 0.413961 -2.032021 57 48 36 -0.978384 0.029576 -0.204668 0.000000 
0.666266 0.391083 -2.073869 60 48 35 0.533226 0.828965 -0.168780 0.000000 
0.653734 0.458057 -1.883702 70 60 46 -0.745524 -0.616279 0.253762 0.000000 
0.663627 0.423964 -1.972781 60 48 35 -0.409945 -0.888950 0.204238 0.000000 
0.662345 0.405495 -2.058973 56 47 38 0.987038 0.142350 0.074116 0.000000 
0.667589 0.399917 -2.046628 53 41 27 0.513899 0.826840 -0.228570 0.000000 
0.659809 0.422538 -2.007928 64 55 42 -0.981259 -0.164151 -0.100923 0.000000 
0.667010 0.383861 -2.103360 62 47 33 0.649272 0.738297 -0.182656 0.000000 
0.659422 0.427576 -1.977060 55 45 33 0.877023 0.480433 0.003993 0.000000 
0.678572 0.363896 -2.151424 50 39 27 0.200107 0.908401 -0.367103 0.000000 
0.668147 0.401020 -2.042920 50 39 26 -0.502039 -0.826433 0.254881 0.000000 
0.661768 0.445926 -1.902349 62 51 37 -0.174510 -0.928392 0.328078 0.000000 
0.656806 0.449972 -1.915498 60 52 44 -0.871212 -0.442308 -0.212963 0.000000 
0.674534 0.409423 -2.009187 56 45 33 0.338575 0.879080 -0.335538 0.000000 
0.652529 0.463158 -1.870845 61 52 41 -0.767517 -0.632504 0.104194 0.000000 
0.678437 0.377172 -2.120992 49 37 25 -0.408031 -0.904399 0.124793 0.000000 
0.672246 0.379495 -2.114358 60 47 34 0.511619 0.859031 0.017642 0.000000 
0.679402 0.376024 -2.126626 48 36 24 0.397954 0.900785 -0.173836 0.000000 
0.648002 0.480224 -1.823712 74 71 67 0.574445 0.790055 -0.214069 0.000000 
0.649339 0.482999 -1.822340 89 82 71 -0.574445 -0.790055 0.214069 0.000000 
0.669228 0.397304 -2.053521 51 39 26 -0.458942 -0.848812 0.262472 0.000000 
0.660512 0.429068 -1.991355 73 62 49 0.994158 0.098860 -0.043321 0.000000 
0.673465 0.396898 -2.043355 52 42 30 -0.378419 -0.886967 0.264744 0.000000 
0.654449 0.450799 -1.913541 75 67 54 0.943081 0.193558 0.270432 0.000000 
0.676933 0.390523 -2.067752 46 35 23 -0.102372 -0.978083 0.181309 0.000000 
0.656428 0.437607 -1.943143 56 47 35 0.837544 0.543914 -0.051735 0.000000 
0.658442 0.429224 -1.976943 57 47 34 -0.903235 -0.428406 -0.025200 0.000000 
0.662015 0.436129 -1.934367 49 39 25 0.405204 0.852325 -0.330684 0.000000 
0.657830 0.443642 -1.915989 57 45 32 -0.479784 -0.874736 0.068143 0.000000 
0.662748 0.406204 -2.036100 55 43 30 0.692039 0.712785 -0.114105 0.000000 
0.670441 0.405700 -2.016552 46 35 24 -0.187359 -0.896126 0.402313 0.000000 
0.665360 0.426048 -1.964755 43 34 22 -0.358820 -0.891840 0.275443 0.000000 
0.665194 0.390148 -2.084823 62 50 36 -0.639543 -0.762476 0.098054 0.000000 
0.673892 0.376010 -2.136025 60 47 34 0.579984 0.735945 -0.349290 0.000000 
0.653642 0.456157 -1.871690 111 113 114 -0.634356 -0.757913 0.152185 0.000000 
0.672536 0.367820 -2.146047 54 42 28 0.562676 0.721084 -0.404269 0.000000 
0.656461 0.471721 -1.835463 93 83 69 0.707607 0.666814 -0.233777 0.000000 
0.658228 0.442161 -1.925597 65 54 40 0.692695 0.683271 -0.230898 0.000000 
0.664913 0.388409 -2.100297 60 48 34 0.957803 0.253575 -0.135327 0.000000 
0.649240 0.483365 -1.824904 91 83 70 -0.574445 -0.790055 0.214069 0.000000 
0.673827 0.390780 -2.066481 52 39 26 0.231834 0.950382 -0.207430 0.000000 
0.660704 0.421079 -1.987925 52 42 30 0.834889 0.483032 -0.263893 0.000000 
0.671793 0.441239 -1.924823 86 74 59 -0.260149 -0.903908 0.339517 0.000000 
0.663609 0.402604 -2.077608 90 78 62 0.998743 0.042788 0.026090 0.000000 
0.675233 0.402868 -2.026592 50 40 28 -0.196853 -0.942969 0.268436 0.000000 
0.687207 0.375325 -2.107023 91 86 79 -0.276948 -0.927419 0.251383 0.000000 
0.665157 0.444414 -1.908448 70 58 44 0.145699 0.983767 -0.104759 0.000000 
0.666146 0.405946 -2.021399 48 36 23 0.324319 0.911874 -0.251602 0.000000 
0.656138 0.438960 -1.949244 51 44 37 -0.955405 -0.271288 -0.116641 0.000000 
0.660852 0.456700 -1.878719 81 69 54 0.395438 0.909648 -0.127155 0.000000 
0.663593 0.400533 -2.086021 87 76 61 0.973432 -0.001174 0.228974 0.000000 
0.667731 0.437804 -1.929379 64 53 39 -0.242765 -0.886168 0.394680 0.000000 
0.665513 0.391223 -2.093956 60 48 33 -0.829733 -0.550759 0.090595 0.000000 
0.668076 0.419723 -1.980981 43 32 21 0.338240 0.829081 -0.445218 0.000000 
0.654362 0.446345 -1.927660 77 68 54 0.992292 0.114018 -0.048542 0.000000 
0.688522 0.366484 -2.141196 63 52 40 -0.126625 -0.886372 0.445320 0.000000 
0.664379 0.430045 -1.951620 48 36 23 0.385311 0.917342 -0.100099 0.000000 
0.674748 0.415856 -1.991651 63 49 35 -0.142492 -0.952164 0.270335 0.000000 
0.652972 0.470368 -1.838870 72 63 51 0.710761 0.667022 -0.223382 0.000000 
0.670306 0.433437 -1.939326 76 65 50 -0.251363 -0.911011 0.326918 0.000000 
0.655256 0.439472 -1.945861 56 49 42 0.955491 0.260348 0.138764 0.000000 
0.665712 0.384232 -2.109291 60 46 32 -0.901545 -0.428336 -0.061191 0.000000 
0.667350 0.413895 -2.000303 48 36 24 0.253326 0.946207 -0.201292 0.000000 
0.669323 0.428640 -1.939903 104 100 96 0.292309 0.920124 -0.260630 0.000000 
0.654743 0.479170 -1.834291 105 98 92 0.659344 0.715725 -0.230222 0.000000 
0.663948 0.415454 -2.000310 52 40 27 -0.500748 -0.861851 0.080402 0.000000 
0.659432 0.423694 -1.996049 56 46 33 0.948937 0.300562 -0.095812 0.000000 
0.654121 0.453323 -1.889917 54 49 44 0.568582 0.746769 -0.345037 0.000000 
0.655674 0.445655 -1.922855 54 48 39 -0.899515 -0.431274 0.069825 0.000000 
0.658921 0.419494 -2.009183 70 57 42 0.945173 0.305282 -0.115980 0.000000 
0.654844 0.445965 -1.926611 54 47 39 0.940218 0.277509 -0.197432 0.000000 
0.656511 0.451792 -1.894861 52 43 30 0.567756 0.734646 -0.371414 0.000000 
0.656122 0.454068 -1.889975 58 48 35 0.477325 0.806184 -0.349612 0.000000 
0.655470 0.444074 -1.909749 54 44 33 0.515989 0.856352 0.020422 0.000000 
0.667106 0.392783 -2.070984 52 39 26 0.603724 0.777085 -0.177924 0.000000 
0.674381 0.413223 -2.001696 63 50 36 -0.231191 -0.934571 0.270423 0.000000 
0.662571 0.409413 -2.017699 55 43 29 -0.580536 -0.742245 0.334738 0.000000 
0.657468 0.435896 -1.956670 67 58 45 -0.889696 -0.449691 0.078869 0.000000 
0.659032 0.427117 -1.977930 57 47 36 0.878384 0.477529 0.020177 0.000000 
0.659108 0.409020 -2.049152 82 70 55 0.996392 0.046825 -0.070782 0.000000 
0.654707 0.446812 -1.920987 74 66 52 0.918680 0.392587 0.043621 0.000000 
0.659781 0.445288 -1.909732 62 50 36 0.166398 0.985764 -0.024099 0.000000 
0.662452 0.405709 -2.037318 58 47 35 0.733477 0.667748 -0.126977 0.000000 
0.652129 0.456912 -1.897679 93 81 66 0.855097 0.499657 -0.138389 0.000000 
0.656868 0.440069 -1.932949 75 62 48 0.786590 0.560504 -0.259057 0.000000 
0.663997 0.406121 -2.032826 61 47 33 0.691543 0.715135 -0.101741 0.000000 
0.684605 0.375880 -2.116997 43 32 20 -0.303055 -0.928900 0.212844 0.000000 
0.667513 0.424506 -1.974823 46 33 21 0.241654 0.913076 -0.328476 0.000000 
0.654875 0.461721 -1.867897 57 47 34 0.694805 0.712432 -0.098418 0.000000 
0.665019 0.408372 -2.063141 82 71 58 0.992514 0.121734 0.009870 0.000000 
0.659565 0.441227 -1.919586 58 50 39 0.490805 0.856330 -0.160654 0.000000 
0.662353 0.406397 -2.059939 60 51 40 0.990781 0.130217 0.037367 0.000000 
0.658318 0.453527 -1.879482 90 87 82 0.469657 0.845994 -0.252421 0.000000 
0.660343 0.423039 -2.010023 67 57 46 -0.997611 -0.033005 -0.060687 0.000000 
0.657365 0.435859 -1.958407 82 72 57 -0.923317 -0.382648 0.032649 0.000000 
0.664710 0.401422 -2.073240 59 49 39 -0.928607 -0.367491 0.051370 0.000000 
0.651890 0.484044 -1.817326 99 92 85 0.535448 0.773425 -0.339278 0.000000 
0.656348 0.450556 -1.896236 51 42 29 0.443953 0.795887 -0.411666 0.000000 
0.661802 0.445419 -1.903086 57 46 33 0.130399 0.945054 -0.299782 0.000000 
0.660419 0.426996 -1.969523 55 43 30 -0.559975 -0.812189 0.163639 0.000000 
0.683192 0.381726 -2.094635 60 49 36 0.232674 0.902893 -0.361450 0.000000 
0.666853 0.413351 -2.008180 55 42 29 0.397437 0.874967 -0.276544 0.000000 
0.656487 0.464655 -1.851445 80 71 59 0.773515 0.613685 -0.158322 0.000000 
0.684487 0.372198 -2.138350 47 37 25 -0.280071 -0.873518 0.398155 0.000000 
0.649072 0.478925 -1.826115 73 64 51 0.748282 0.619647 -0.236878 0.000000 
0.662529 0.416144 -1.997766 50 39 26 0.647274 0.755887 -0.098339 0.000000 
0.672202 0.383911 -2.134385 81 70 55 -0.702747 -0.668005 0.244777 0.000000 
0.656400 0.458298 -1.878011 60 52 41 0.689415 0.676736 -0.258332 0.000000 
0.660937 0.430901 -1.957057 63 51 37 0.766036 0.624567 -0.152003 0.000000 
0.668508 0.376055 -2.145496 64 51 36 -0.753157 -0.510309 0.415139 0.000000 
0.649331 0.475874 -1.827778 71 62 49 0.811440 0.583960 -0.023580 0.000000 
0.654501 0.452639 -1.890698 55 50 44 0.506930 0.783729 -0.358874 0.000000 
0.656922 0.452433 -1.892544 54 45 31 -0.491343 -0.779986 0.387561 0.000000 
0.667532 0.393913 -2.063597 50 38 25 -0.518159 -0.818228 0.249026 0.000000 
0.653372 0.452174 -1.897591 56 50 44 0.828338 0.505609 -0.241278 0.000000 
0.665586 0.420704 -1.980209 47 37 24 0.440220 0.798201 -0.411195 0.000000 
0.653646 0.447925 -1.915533 59 52 42 0.923158 0.131484 0.361236 0.000000 
0.677471 0.381949 -2.103865 48 36 24 0.215827 0.937109 -0.274310 0.000000 
0.663199 0.451118 -1.884370 87 85 81 0.269124 0.879538 -0.392409 0.000000 
0.655278 0.451848 -1.896422 58 48 34 -0.792376 -0.525604 0.309646 0.000000 
0.668935 0.375936 -2.149427 58 45 31 -0.678370 -0.605392 0.416310 0.000000 
0.660522 0.433169 -1.979803 55 47 40 0.966279 0.256459 0.023093 0.000000 
0.660092 0.436158 -1.935793 52 42 30 -0.532397 -0.776882 0.336166 0.000000 
0.659669 0.403237 -2.056664 54 45 34 0.982539 0.171137 0.073002 0.000000 
0.649435 0.473495 -1.824264 95 89 79 -0.551383 -0.775133 0.308455 0.000000 
0.649842 0.478752 -1.823846 75 66 54 -0.535448 -0.773425 0.339278 0.000000 
0.678818 0.370055 -2.137246 56 44 32 -0.357263 -0.835713 0.417070 0.000000 
0.667416 0.372034 -2.156019 57 46 32 0.586257 0.701856 -0.404600 0.000000 
0.665655 0.430208 -1.949125 49 38 24 -0.326788 -0.927067 0.183730 0.000000 
0.660901 0.409305 -2.031116 60 48 34 0.920536 0.377761 0.099554 0.000000 
0.663818 0.430539 -1.989722 68 61 55 0.992776 0.119572 -0.009873 0.000000 
0.661431 0.395932 -2.068093 58 47 35 -0.844798 -0.526385 0.096098 0.000000 
0.656072 0.442189 -1.928861 67 57 43 0.842584 0.512683 -0.164950 0.000000 
0.668931 0.391168 -2.112024 65 54 42 -0.976309 0.095280 -0.194272 0.000000 
0.666216 0.410146 -2.013633 51 39 26 -0.361823 -0.792794 0.490471 0.000000 
0.675233 0.402868 -2.026592 50 40 28 -0.196853 -0.942969 0.268436 0.000000 
0.659161 0.421220 -1.989785 58 48 39 0.890112 0.415191 -0.187929 0.000000 
0.670306 0.410006 -2.010674 47 36 24 0.439667 0.800420 -0.407457 0.000000 
0.677646 0.383408 -2.098236 50 39 26 -0.239676 -0.885759 0.397475 0.000000 
0.655875 0.466048 -1.853162 73 62 48 0.835539 0.517524 -0.184509 0.000000 
0.661464 0.451463 -1.891728 64 55 41 -0.268596 -0.851833 0.449707 0.000000 
0.651580 0.463411 -1.866432 60 50 40 0.824916 0.555260 -0.105833 0.000000 
0.684082 0.359959 -2.159771 55 45 33 0.158977 0.918692 -0.361568 0.000000 
0.655924 0.454833 -1.887328 50 42 31 0.476311 0.775427 -0.414537 0.000000 
0.656593 0.479730 -1.818164 115 103 88 0.535448 0.773425 -0.339278 0.000000 
0.674166 0.363736 -2.154871 50 39 27 0.467080 0.850481 -0.241908 0.000000 
0.662472 0.417051 -1.995724 55 42 28 0.709082 0.694154 -0.123903 0.000000 
0.663564 0.419670 -2.025228 76 67 55 -0.923484 0.322014 -0.208529 0.000000 
0.672287 0.414205 -1.995352 51 39 27 0.137740 0.958935 -0.247933 0.000000 
0.656144 0.439487 -1.937978 70 60 45 -0.930131 -0.345555 0.124291 0.000000 
0.667602 0.404389 -2.029716 49 37 25 -0.422000 -0.894067 0.150203 0.000000 
0.662502 0.433260 -1.942344 50 39 25 0.369842 0.875140 -0.312006 0.000000 
0.664481 0.403155 -2.042179 54 43 29 0.630659 0.740203 -0.233172 0.000000 
0.655150 0.436397 -1.940274 61 50 42 0.858226 0.495186 -0.135051 0.000000 
0.667860 0.400079 -2.090312 87 77 63 0.944286 -0.039719 0.326720 0.000000 
0.661184 0.417174 -2.004511 59 47 32 0.830820 0.555272 -0.037575 0.000000 
0.653557 0.452221 -1.900101 65 58 50 0.847964 0.480867 -0.222989 0.000000 
0.676944 0.403630 -2.019816 78 67 53 -0.063941 -0.940844 0.332753 0.000000 
0.654547 0.465855 -1.848067 87 83 79 -0.754947 -0.617967 0.219480 0.000000 
0.658927 0.414898 -2.018394 59 48 35 0.979634 0.177337 -0.094172 0.000000 
0.672281 0.377394 -2.133045 61 48 35 0.628376 0.738617 -0.244106 0.000000 
0.659404 0.411016 -2.028252 54 44 33 0.945909 0.258722 0.195753 0.000000 
0.650786 0.465900 -1.862276 66 54 40 0.764741 0.618204 -0.181645 0.000000 
0.650164 0.473373 -1.840015 62 54 43 0.788918 0.571927 -0.224741 0.000000 
0.653517 0.458472 -1.882896 59 51 38 -0.749175 -0.617245 0.240302 0.000000 
0.663794 0.406855 -2.061855 67 57 46 -0.980491 -0.196558 0.001149 0.000000 
0.654622 0.444464 -1.935460 92 80 65 0.989448 0.126436 0.070758 0.000000 
0.663444 0.397426 -2.092747 89 77 60 0.954632 0.001225 0.297786 0.000000 
0.684427 0.390410 -2.072759 59 48 34 -0.105065 -0.977725 0.181701 0.000000 
0.678786 0.402560 -2.030171 66 54 40 -0.268332 -0.922660 0.276941 0.000000 
0.659445 0.424488 -1.989297 54 44 33 -0.981904 -0.163449 0.095648 0.000000 
0.662712 0.430348 -1.953215 58 47 34 -0.415837 -0.900744 0.125456 0.000000 
0.652607 0.446224 -1.908416 65 55 41 0.769736 0.614878 -0.171558 0.000000 
0.658484 0.428699 -1.980377 62 52 39 0.907239 0.414855 0.069369 0.000000 
0.666008 0.389889 -2.089247 63 51 36 -0.556416 -0.823729 0.108959 0.000000 
0.661784 0.429056 -1.959941 52 42 29 0.603826 0.749632 -0.271009 0.000000 
0.661975 0.395456 -2.076009 56 45 33 0.871357 0.484087 -0.079980 0.000000 
0.668932 0.428399 -1.948420 65 54 41 0.300351 0.941824 -0.150855 0.000000 
0.653780 0.446607 -1.916564 70 61 48 -0.886967 -0.378419 -0.264744 0.000000 
0.653299 0.471419 -1.836194 72 62 49 0.707401 0.663287 -0.244203 0.000000 
0.654337 0.458949 -1.882092 62 53 40 0.686203 0.686203 -0.241354 0.000000 
0.669118 0.382243 -2.099125 64 52 40 0.432537 0.812404 -0.391039 0.000000 
0.657693 0.478599 -1.823705 118 115 108 -0.520649 -0.803782 0.287852 0.000000 
0.654349 0.463326 -1.860058 64 58 50 0.715795 0.666108 -0.209614 0.000000 
0.660079 0.412249 -2.029670 53 43 31 -0.971594 -0.104324 -0.212418 0.000000 
0.667815 0.373829 -2.150397 57 45 31 0.651174 0.641232 -0.405948 0.000000 
0.665233 0.385832 -2.104302 60 47 34 0.845160 0.519315 -0.126556 0.000000 
0.678786 0.402560 -2.030171 66 54 40 0.268332 0.922660 -0.276941 0.000000 
0.661918 0.414629 -2.035346 63 54 43 0.981648 -0.100963 0.161783 0.000000 
0.678738 0.383049 -2.100892 49 37 25 0.235311 0.904705 -0.355159 0.000000 
0.689446 0.378018 -2.109881 59 49 36 -0.298517 -0.924117 0.238528 0.000000 
0.653742 0.462963 -1.872904 61 52 40 -0.718292 -0.675591 0.166229 0.000000 
0.660758 0.431944 -1.954239 67 54 40 -0.732475 -0.670073 0.120346 0.000000 
0.650166 0.466872 -1.867172 78 69 57 0.814661 0.570698 -0.103103 0.000000 
0.653297 0.444672 -1.912623 56 50 41 0.661019 0.743462 0.101582 0.000000 
0.669881 0.395377 -2.104138 82 72 59 -0.993423 0.114249 -0.007617 0.000000 
0.657085 0.446048 -1.934784 61 55 47 0.975811 0.213496 0.047042 0.000000 
0.670364 0.380928 -2.115041 60 47 33 0.560391 0.827377 0.037545 0.000000 
0.690635 0.366979 -2.140978 60 50 38 -0.123028 -0.895137 0.428478 0.000000 
0.667342 0.407516 -2.016367 48 36 23 0.248997 0.870736 -0.424050 0.000000 
0.676387 0.399264 -2.037528 50 40 27 0.311424 0.901801 -0.299616 0.000000 
0.658042 0.421506 -2.000801 68 56 40 -0.957492 -0.287865 0.018532 0.000000 
0.659842 0.426678 -1.974773 58 48 35 0.673903 0.732631 -0.095433 0.000000 
0.653775 0.459302 -1.882785 65 57 44 0.686203 0.686203 -0.241354 0.000000 
0.658024 0.436211 -1.959659 62 54 43 0.916370 0.387643 -0.099993 0.000000 
0.663053 0.391973 -2.088962 64 51 36 0.815525 0.565725 0.121961 0.000000 
0.660808 0.427358 -1.962894 56 46 34 0.633482 0.722839 -0.276051 0.000000 
0.661417 0.443121 -1.914518 50 38 25 0.278874 0.930051 -0.239237 0.000000 
0.670981 0.424995 -1.968863 49 39 27 0.027708 0.972200 -0.232509 0.000000 
0.666388 0.390134 -2.089698 63 50 35 -0.566916 -0.809239 0.154070 0.000000 
0.660356 0.424914 -1.998985 52 43 35 -0.974636 -0.221781 0.029970 0.000000 
0.662259 0.399054 -2.063515 57 45 32 0.868727 0.448519 -0.210104 0.000000 
0.650714 0.446993 -1.908524 79 70 57 -0.883813 -0.451157 0.123819 0.000000 
0.680815 0.393478 -2.054637 61 50 37 0.127413 0.966536 -0.222651 0.000000 
0.649435 0.473495 -1.824264 95 89 79 -0.551383 -0.775133 0.308455 0.000000 
0.687771 0.378673 -2.106541 54 44 32 0.278212 0.925947 -0.255384 0.000000 
0.662321 0.416919 -2.029560 67 58 47 0.961334 -0.226891 0.156069 0.000000 
0.662111 0.406329 -2.036888 53 42 30 0.737493 0.662696 -0.130146 0.000000 
0.659704 0.441177 -1.951549 60 55 49 0.908174 0.415968 0.046813 0.000000 
0.670233 0.391573 -2.072570 51 38 25 -0.347043 -0.919309 0.185562 0.000000 
0.656102 0.444615 -1.934266 53 46 38 0.965510 0.259336 0.023133 0.000000 
0.662199 0.407297 -2.056970 59 49 39 -0.996671 -0.059779 -0.055431 0.000000 
0.653103 0.467319 -1.854755 70 63 55 -0.829301 -0.495728 0.257902 0.000000 
0.658046 0.431876 -1.964742 71 60 46 -0.966898 -0.240779 0.084462 0.000000 
0.661020 0.414080 -2.032539 58 49 38 -0.978384 0.029576 -0.204668 0.000000 
0.680760 0.382198 -2.093984 61 49 36 0.198204 0.916871 -0.346500 0.000000 
0.667233 0.391728 -2.107020 62 52 40 0.987699 -0.149021 0.047363 0.000000 
0.682815 0.361400 -2.154670 55 44 32 -0.125977 -0.920601 0.369625 0.000000 
0.679839 0.385506 -2.091381 48 36 23 0.249235 0.908033 -0.336686 0.000000 
0.659419 0.430653 -1.982488 49 42 35 -0.970010 -0.229047 -0.081356 0.000000 
0.663841 0.434317 -1.934071 64 54 41 -0.305196 -0.885520 0.350299 0.000000 
0.670054 0.386945 -2.087855 67 56 44 0.235709 0.959953 -0.151433 0.000000 
0.661502 0.425241 -2.017275 87 76 62 -0.908461 0.379122 -0.175970 0.000000 
0.661286 0.409179 -2.043684 51 40 29 -0.990177 -0.133315 0.042159 0.000000 
0.661900 0.416737 -1.997220 53 41 27 0.671536 0.733524 -0.104789 0.000000 
0.664998 0.387453 -2.104532 67 55 40 0.929353 0.354104 -0.104467 0.000000 
0.668190 0.393966 -2.064026 50 38 25 0.518159 0.818228 -0.249026 0.000000 
0.666755 0.391260 -2.078287 56 44 30 -0.623352 -0.773664 0.113471 0.000000 
0.670986 0.388473 -2.084325 62 50 36 0.228497 0.962299 -0.147544 0.000000 
0.648574 0.480406 -1.825358 81 71 58 -0.715802 -0.662780 0.219887 0.000000 
0.668857 0.392684 -2.068630 48 36 23 0.419214 0.881387 -0.217754 0.000000 
0.670309 0.380186 -2.126491 58 46 33 0.691610 0.717818 -0.080081 0.000000 
0.670420 0.413662 -1.996737 46 36 24 -0.176321 -0.958496 0.224047 0.000000 
0.662819 0.395867 -2.090648 62 51 38 0.944299 0.218550 0.246040 0.000000 
0.662740 0.413748 -1.998163 63 54 45 -0.524511 -0.825534 0.208284 0.000000 
0.661715 0.408918 -2.018437 56 44 31 -0.614700 -0.715258 0.332490 0.000000 
0.670351 0.379749 -2.140900 72 60 46 -0.721882 -0.605084 0.335797 0.000000 
0.661136 0.408541 -2.044616 53 43 32 0.983159 0.166454 -0.075443 0.000000 
0.682666 0.363684 -2.150107 47 35 23 0.108574 0.919439 -0.377946 0.000000 
0.660188 0.427454 -1.963239 63 53 44 -0.706721 -0.655900 0.265219 0.000000 
0.666693 0.401498 -2.041394 52 41 28 0.523978 0.808647 -0.267464 0.000000 
0.660593 0.412764 -2.012160 58 48 40 0.701150 0.537937 -0.467988 0.000000 
0.656718 0.435654 -1.950626 59 51 38 0.892607 0.448335 0.047407 0.000000 
0.650743 0.446693 -1.909614 65 56 48 -0.899144 -0.432517 0.066856 0.000000 
0.661952 0.393677 -2.079760 56 46 33 -0.808921 -0.572308 0.134574 0.000000 
0.661675 0.413256 -2.010803 55 43 31 -0.591614 -0.651948 0.474296 0.000000 
0.682022 0.373568 -2.132928 47 36 25 0.402098 0.872476 -0.277675 0.000000 
0.661761 0.416227 -2.036799 82 73 59 -0.976155 0.166661 -0.139093 0.000000 
0.661498 0.396238 -2.067889 55 44 32 -0.837017 -0.536327 0.108422 0.000000 
0.655127 0.440519 -1.939661 82 71 57 0.983242 0.171978 -0.060489 0.000000 
0.663201 0.398169 -2.061131 62 50 35 -0.788418 -0.559573 0.255491 0.000000 
0.662152 0.428081 -1.962937 50 39 26 -0.581141 -0.770130 0.263010 0.000000 
0.667301 0.420615 -1.979243 43 33 22 -0.247424 -0.857634 0.450827 0.000000 
0.650502 0.476915 -1.822532 99 92 81 0.535448 0.773425 -0.339278 0.000000 
0.673464 0.401715 -2.029539 45 34 22 -0.284831 -0.928180 0.239485 0.000000 
0.667323 0.385195 -2.116907 61 49 34 -0.865117 -0.434831 -0.249990 0.000000 
0.665679 0.386418 -2.111912 67 54 40 -0.973693 -0.150676 -0.170934 0.000000 
0.659842 0.426678 -1.974773 58 48 35 0.673903 0.732631 -0.095433 0.000000 
0.677136 0.378153 -2.121778 53 40 27 -0.408031 -0.904399 0.124793 0.000000 
0.662916 0.426517 -1.970574 54 42 28 0.504806 0.843341 -0.184247 0.000000 
0.659791 0.424405 -1.987706 55 45 32 0.970668 0.222262 -0.091667 0.000000 
0.667425 0.374591 -2.152433 67 55 40 0.651174 0.641232 -0.405948 0.000000 
0.664507 0.405037 -2.026938 50 38 25 -0.586815 -0.806693 0.069961 0.000000 
0.675762 0.415038 -1.993339 66 55 40 0.115878 0.959574 -0.256494 0.000000 
0.664183 0.439106 -1.925448 49 38 26 0.280159 0.896806 -0.342417 0.000000 
0.665074 0.406216 -2.020979 50 38 25 0.375749 0.879767 -0.291244 0.000000 
0.660343 0.443927 -1.951449 98 97 95 0.979152 0.175682 0.101969 0.000000 
0.662362 0.441341 -1.918809 54 44 32 0.337860 0.915817 -0.217093 0.000000 
0.668152 0.421774 -1.978521 42 32 20 -0.281075 -0.893788 0.349485 0.000000 
0.657123 0.455962 -1.881195 54 47 35 0.549248 0.798199 -0.247395 0.000000 
0.658634 0.439898 -1.929453 59 48 34 -0.626876 -0.717120 0.304575 0.000000 
0.660624 0.409365 -2.036510 55 45 34 0.988107 0.085566 0.127762 0.000000 
0.667306 0.423970 -1.966314 57 47 34 0.293203 0.932919 -0.209030 0.000000 
0.660570 0.395917 -2.085189 65 55 40 -0.964280 -0.157886 -0.212690 0.000000 
0.654099 0.462184 -1.870136 57 47 34 0.704654 0.698695 -0.123650 0.000000 
0.658590 0.430911 -1.983174 80 68 54 -0.991935 -0.099308 -0.078761 0.000000 
0.666439 0.391986 -2.074367 53 41 28 0.591585 0.794243 -0.138583 0.000000 
0.686233 0.391305 -2.071440 67 56 43 -0.092065 -0.978349 0.185358 0.000000 
0.658650 0.429048 -1.979625 69 58 44 -0.895676 -0.436071 -0.087214 0.000000 
0.669474 0.427722 -1.958804 56 44 31 -0.327408 -0.905878 0.268680 0.000000 
0.670497 0.381582 -2.126021 60 48 35 0.686915 0.726248 -0.026690 0.000000 
0.655836 0.443241 -1.910895 59 50 39 -0.512172 -0.858197 -0.034328 0.000000 
0.650922 0.470835 -1.858476 86 75 61 0.879622 0.422752 -0.218051 0.000000 
0.648980 0.482330 -1.827295 78 72 63 0.715802 0.662780 -0.219887 0.000000 
0.660951 0.423503 -1.984678 57 46 34 -0.770765 -0.581620 0.260074 0.000000 
0.654626 0.456231 -1.886491 60 50 36 0.596244 0.663050 -0.452611 0.000000 
0.658231 0.429738 -1.973195 55 44 32 0.927905 0.338052 -0.157201 0.000000 
0.662258 0.399182 -2.067134 53 42 30 0.871352 0.468297 -0.146434 0.000000 
0.659393 0.412517 -2.026370 59 48 34 0.983101 -0.080425 0.164450 0.000000 
0.658927 0.414898 -2.018394 59 48 35 -0.979634 -0.177337 0.094172 0.000000 
0.678943 0.386012 -2.093459 50 38 25 -0.226698 -0.914012 0.336437 0.000000 
0.669804 0.436197 -1.929015 81 70 57 -0.207659 -0.901791 0.379014 0.000000 
0.673591 0.393318 -2.055947 61 49 36 -0.289797 -0.913080 0.286885 0.000000 
0.671213 0.371720 -2.142636 55 43 29 -0.655050 -0.601440 0.457362 0.000000 
0.652502 0.461045 -1.877663 70 64 58 0.815522 0.554195 -0.166709 0.000000 
0.667668 0.393526 -2.067530 51 38 25 0.515897 0.815149 -0.263404 0.000000 
0.647663 0.480102 -1.820428 101 95 83 0.535448 0.773425 -0.339278 0.000000 
0.671382 0.418724 -1.982048 51 40 27 -0.151582 -0.882062 0.446083 0.000000 
0.656893 0.443271 -1.923567 70 59 46 0.790634 0.559838 -0.247950 0.000000 
0.664056 0.400384 -2.054755 61 49 34 -0.855921 -0.490571 0.163524 0.000000 
0.657718 0.460485 -1.887782 76 71 66 0.404269 0.721084 -0.562676 0.000000 
0.683986 0.364204 -2.148396 47 36 24 -0.095540 -0.901400 0.422315 0.000000 
0.664807 0.404247 -2.039184 58 46 31 0.644420 0.734484 -0.212736 0.000000 
0.660181 0.421703 -2.010610 54 45 36 -0.999217 -0.039563 -0.001014 0.000000 
0.673165 0.396061 -2.048065 50 40 28 0.323919 0.907267 -0.268223 0.000000 
0.663591 0.414958 -2.036170 59 51 42 -0.985164 0.089344 -0.146524 0.000000 
0.667290 0.402267 -2.038095 50 40 28 -0.506543 -0.835112 0.214482 0.000000 
0.660122 0.416371 -2.010444 53 43 32 0.769332 0.499334 -0.398491 0.000000 
0.652764 0.460354 -1.883828 75 68 56 -0.711632 -0.654574 0.255173 0.000000 
0.653001 0.469434 -1.849901 65 59 52 -0.883935 -0.441244 0.154797 0.000000 
0.665432 0.383216 -2.106570 63 48 34 0.766853 0.625788 -0.142566 0.000000 
0.657001 0.446671 -1.934745 71 64 54 -0.975811 -0.213496 -0.047042 0.000000 
0.684382 0.393249 -2.061373 72 61 46 -0.094387 -0.970295 0.222753 0.000000 
0.661800 0.430490 -1.954664 61 50 38 0.577934 0.807343 -0.119116 0.000000 
0.656982 0.435979 -1.954468 77 67 52 0.907025 0.416228 -0.063722 0.000000 
0.654658 0.448668 -1.902249 61 52 39 -0.597610 -0.715495 0.361841 0.000000 
0.660770 0.427630 -1.965379 51 40 28 0.564034 0.797640 -0.213626 0.000000 
0.665855 0.412209 -2.010400 52 40 27 0.456411 0.743109 -0.489365 0.000000 
0.662491 0.411319 -2.013336 58 46 33 -0.523693 -0.694354 0.493577 0.000000 
0.660207 0.404689 -2.056550 55 46 35 -0.983736 -0.165344 -0.070182 0.000000 
0.676030 0.364730 -2.150918 51 39 27 0.424468 0.831579 -0.358194 0.000000 
0.652245 0.472748 -1.851116 78 68 55 -0.872379 -0.474150 0.118896 0.000000 
0.664983 0.404316 -2.031542 56 45 33 0.647274 0.755887 -0.098339 0.000000 
0.665189 0.390778 -2.082270 61 50 36 -0.624318 -0.770340 0.129632 0.000000 
0.659985 0.403865 -2.051908 57 47 34 -0.952964 -0.298994 0.049620 0.000000 
0.659887 0.436003 -1.970237 76 67 55 -0.994447 -0.104963 0.007575 0.000000 
0.655963 0.469590 -1.842038 84 74 60 0.635512 0.756274 -0.155481 0.000000 
0.667309 0.433084 -1.936512 70 58 44 -0.305517 -0.886450 0.347657 0.000000 
0.672909 0.405235 -2.020215 48 37 24 0.147896 0.930223 -0.335875 0.000000 
0.665731 0.387825 -2.109842 60 47 34 -0.987534 -0.059462 -0.145740 0.000000 
0.664934 0.387002 -2.106755 59 46 32 0.931161 0.364588 -0.003811 0.000000 
0.666191 0.397019 -2.095056 76 66 52 0.986410 0.035765 0.160364 0.000000 
0.663300 0.405375 -2.068503 82 70 54 0.999542 -0.021397 0.021397 0.000000 
0.661137 0.396779 -2.085933 63 54 40 -0.969452 -0.150233 -0.193890 0.000000 
0.659200 0.435010 -1.941802 59 47 33 0.605913 0.773799 -0.184674 0.000000 
0.668683 0.382886 -2.108208 64 49 35 0.600607 0.791509 -0.113073 0.000000 
0.651911 0.465317 -1.874284 87 76 62 -0.815883 -0.567761 0.109465 0.000000 
0.670738 0.428339 -1.953083 73 61 46 -0.301591 -0.935348 0.184846 0.000000 
0.659181 0.426069 -1.977982 57 48 38 0.787648 0.615999 0.012458 0.000000 
0.652662 0.471130 -1.834304 89 81 65 0.693124 0.716374 -0.079920 0.000000 
0.657817 0.433161 -1.978085 83 73 58 0.990830 0.134557 -0.012232 0.000000 
0.666791 0.436553 -1.928952 60 49 36 -0.242765 -0.886168 0.394680 0.000000 
0.661094 0.453679 -1.885154 73 64 51 0.278041 0.893599 -0.352384 0.000000 
0.660426 0.417566 -1.996527 52 42 30 0.729462 0.680350 -0.070779 0.000000 
0.666173 0.390481 -2.085708 62 50 36 0.617587 0.782470 -0.079549 0.000000 
0.676485 0.377984 -2.129384 58 45 32 -0.538621 -0.830804 0.140189 0.000000 
0.659722 0.417366 -2.018196 53 44 36 0.999690 -0.021184 0.013114 0.000000 
0.665242 0.425844 -1.970059 53 39 26 0.314250 0.934445 -0.167508 0.000000 
0.672229 0.414872 -1.988657 58 48 35 0.159650 0.928748 -0.334572 0.000000 
0.658947 0.432388 -1.983685 86 75 60 -0.991935 -0.099308 -0.078761 0.000000 
0.665293 0.389598 -2.100982 59 47 34 0.997090 -0.069614 -0.031059 0.000000 
0.662286 0.403539 -2.043653 54 43 30 -0.787865 -0.605937 0.110037 0.000000 
0.688524 0.376845 -2.112947 53 43 31 -0.266417 -0.931756 0.246683 0.000000 
0.674183 0.425807 -1.972017 60 48 34 0.016221 -0.949552 0.313190 0.000000 
0.653828 0.447072 -1.917650 64 58 52 0.957096 0.110987 0.267674 0.000000 
0.656687 0.436970 -1.954115 59 51 40 0.907025 0.416228 -0.063722 0.000000 
0.659722 0.417366 -2.018196 53 44 36 -0.999690 0.021184 -0.013114 0.000000 
0.667090 0.413432 -2.006854 49 38 26 0.384575 0.894394 -0.228387 0.000000 
0.667232 0.423564 -1.970161 56 45 32 -0.235104 -0.957684 0.166034 0.000000 
0.659362 0.432869 -1.950755 58 48 35 0.703133 0.708861 -0.055850 0.000000 
0.661069 0.398159 -2.072114 65 53 40 0.947783 0.316776 -0.036894 0.000000 
0.664496 0.386669 -2.103420 64 51 37 -0.907858 -0.407638 0.098109 0.000000 
0.656647 0.436702 -1.943874 57 48 35 0.837727 0.543049 -0.057532 0.000000 
0.664533 0.430730 -1.948048 48 36 23 0.346695 0.917386 -0.195462 0.000000 
0.664224 0.456122 -1.884817 98 86 70 -0.347646 -0.878982 0.326392 0.000000 
0.659353 0.432072 -1.959710 59 49 37 0.787195 0.576864 -0.218064 0.000000 
0.670134 0.414630 -1.993967 50 38 25 -0.188780 -0.949333 0.251254 0.000000 
0.664179 0.432568 -1.941873 46 35 23 0.337647 0.900883 -0.272771 0.000000 
0.651452 0.456749 -1.893451 85 73 59 -0.803012 -0.575716 0.154023 0.000000 
0.655389 0.445836 -1.903979 50 41 30 0.462868 0.791875 -0.398356 0.000000 
0.658008 0.447525 -1.898531 55 46 32 -0.481431 -0.779691 0.400382 0.000000 
0.666066 0.422295 -1.979949 44 33 21 0.424518 0.868676 -0.255315 0.000000 
0.670985 0.392779 -2.065482 46 35 22 0.335127 0.905867 -0.259028 0.000000 
0.659587 0.419041 -2.013144 52 43 33 0.984003 0.156627 -0.084890 0.000000 
0.682666 0.363684 -2.150107 47 35 23 0.108574 0.919439 -0.377946 0.000000 
0.659367 0.457073 -1.874024 82 72 58 -0.625730 -0.747443 0.223141 0.000000 
0.654735 0.445721 -1.925799 61 55 48 0.942269 0.270988 -0.196707 0.000000 
0.659073 0.441023 -1.923491 56 45 32 -0.601601 -0.764112 0.232828 0.000000 
0.662044 0.407737 -2.032357 60 47 33 0.825135 0.560978 -0.066749 0.000000 
0.662986 0.397360 -2.088798 65 54 42 0.958649 0.075313 0.274447 0.000000 
0.659505 0.418475 -2.005201 58 46 32 -0.929597 -0.368523 0.006376 0.000000 
0.655967 0.443321 -1.929679 56 49 39 0.907719 0.413833 -0.069198 0.000000 
0.659182 0.431007 -1.963857 66 55 41 0.803281 0.526613 -0.278240 0.000000 
0.666035 0.389385 -2.093898 67 54 39 0.814592 0.577415 -0.055059 0.000000 
0.667532 0.393913 -2.063597 50 38 25 -0.518159 -0.818228 0.249026 0.000000 
0.662283 0.425253 -1.969915 56 44 31 0.448586 0.881305 -0.148567 0.000000 
0.658952 0.415039 -2.016340 54 45 35 -0.967134 -0.226133 0.116260 0.000000 
0.667980 0.386525 -2.118017 59 46 32 -0.875895 -0.447484 -0.180461 0.000000 
0.656475 0.469026 -1.841837 88 78 64 0.604685 0.768614 -0.208779 0.000000 
0.659064 0.432680 -1.959423 59 50 38 0.787195 0.576864 -0.218064 0.000000 
0.657407 0.434943 -1.940998 58 48 36 -0.678973 -0.712692 0.176257 0.000000 
0.668212 0.403130 -2.035621 53 40 27 0.505241 0.840058 -0.197572 0.000000 
0.655274 0.460496 -1.863144 77 72 67 0.537833 0.802852 -0.257224 0.000000 
0.665849 0.413038 -2.009836 55 42 29 0.441111 0.806833 -0.392990 0.000000 
0.659019 0.410926 -2.024745 68 55 40 0.956432 0.285786 -0.059698 0.000000 
0.670973 0.373576 -2.140266 58 45 32 -0.658105 -0.587773 0.470553 0.000000 
0.658842 0.428183 -1.972332 56 45 32 0.692683 0.704808 -0.153087 0.000000 
0.678088 0.399663 -2.034758 62 52 39 -0.302571 -0.916400 0.262035 0.000000 
0.653771 0.469984 -1.841253 73 63 50 0.611668 0.765741 -0.198754 0.000000 
0.669103 0.402515 -2.035614 48 37 25 -0.444085 -0.874891 0.193273 0.000000 
0.660471 0.455527 -1.885718 76 66 53 0.311736 0.861497 -0.400803 0.000000 
0.656208 0.438388 -1.935253 60 50 38 0.755949 0.558464 -0.341553 0.000000 
0.671531 0.387513 -2.125489 77 65 51 -0.704333 -0.709868 0.001384 0.000000 
0.658638 0.433090 -1.946424 56 46 32 0.583206 0.803562 -0.118992 0.000000 
0.654847 0.442949 -1.934458 86 74 59 -0.975911 -0.217785 0.012949 0.000000 
0.658218 0.429935 -1.977106 53 44 35 -0.931783 -0.361568 -0.032399 0.000000 
0.659791 0.451775 -1.889896 60 53 42 0.260182 0.862708 -0.433636 0.000000 
0.664161 0.428527 -1.960479 48 37 24 0.463319 0.834599 -0.297960 0.000000 
0.651906 0.473250 -1.844871 71 63 51 0.782691 0.606772 -0.138648 0.000000 
0.660260 0.411700 -2.015020 55 43 31 0.806012 0.434253 -0.402205 0.000000 
0.654762 0.449205 -1.900954 51 43 32 0.626479 0.701330 -0.340088 0.000000 
0.657723 0.448414 -1.923639 58 49 41 -0.826701 -0.536683 0.168928 0.000000 
0.654891 0.459351 -1.875941 62 55 45 0.693430 0.687197 -0.216599 0.000000 
0.675721 0.414707 -1.989933 75 64 50 -0.102543 -0.941530 0.320946 0.000000 
0.661332 0.431011 -1.951055 57 46 33 0.518898 0.853759 -0.042896 0.000000 
0.655854 0.449842 -1.898046 50 42 31 -0.650725 -0.634082 0.417729 0.000000 
0.671047 0.421005 -1.978876 50 38 26 0.201238 0.866070 -0.457631 0.000000 
0.665546 0.386860 -2.112484 73 60 45 0.973693 0.150676 0.170934 0.000000 
0.673953 0.375532 -2.134733 57 45 32 -0.577386 -0.759718 0.299089 0.000000 
0.663149 0.416747 -2.036069 80 71 58 0.976155 -0.166661 0.139093 0.000000 
0.667309 0.433084 -1.936512 70 58 44 -0.305517 -0.886450 0.347657 0.000000 
0.652991 0.457201 -1.886120 55 49 41 0.713064 0.584613 -0.386998 0.000000 
0.666293 0.404973 -2.021865 51 40 27 0.321813 0.916373 -0.238113 0.000000 
0.684382 0.393249 -2.061373 72 61 46 0.094387 0.970295 -0.222753 0.000000 
0.658416 0.445960 -1.905523 55 45 31 -0.230479 -0.896961 0.377281 0.000000 
0.660364 0.404711 -2.046871 64 52 37 0.877293 0.436427 -0.199721 0.000000 
0.662036 0.430928 -1.946856 49 37 24 0.471316 0.860857 -0.191797 0.000000 
0.669078 0.432870 -1.930110 108 104 99 0.255568 0.883280 -0.393067 0.000000 
