ply
format ascii 1.0
comment Created by Open3D
obj_info Generated by CloudCompare!
element vertex 620
property float x
property float y
property float z
property uchar red
property uchar green
property uchar blue
property float nx
property float ny
property float nz
property float scalar_leaf4
end_header
-0.012321 1.095196 -1.562650 68 57 41 0.836224 0.078351 0.542762 0.000000 
-0.019587 1.168075 -1.443923 72 65 52 -0.607217 0.794477 0.009638 0.000000 
-0.020509 1.131463 -1.520049 90 79 63 -0.812088 0.541904 -0.216455 0.000000 
-0.027068 1.017719 -1.747360 85 73 58 0.994631 0.027415 -0.099792 0.000000 
-0.021363 1.103856 -1.552227 92 80 66 0.776735 0.599021 -0.194567 0.000000 
-0.022614 0.875722 -2.030325 100 84 67 0.773449 0.578118 -0.259917 0.000000 
-0.020394 1.039885 -1.685734 87 69 51 -0.697037 -0.529882 0.483078 0.000000 
-0.017330 1.176669 -1.407394 95 85 68 -0.993586 0.020906 -0.111132 0.000000 
-0.022657 0.976363 -1.809246 76 60 43 -0.473791 -0.776627 0.415178 0.000000 
-0.020326 1.196802 -1.358130 95 83 63 -0.667500 0.692989 -0.272416 0.000000 
-0.023432 1.101393 -1.566506 60 51 39 0.983030 0.100359 -0.153561 0.000000 
-0.008162 1.058362 -1.638039 109 101 87 0.947171 -0.311381 0.076868 0.000000 
-0.004425 1.070905 -1.578898 105 99 92 0.803127 0.557429 -0.210379 0.000000 
-0.012135 1.053002 -1.677915 116 112 107 -0.412975 0.668389 -0.618633 0.000000 
-0.017085 1.172997 -1.406811 97 86 67 0.935789 -0.335268 0.109063 0.000000 
-0.015715 1.076082 -1.598054 71 61 48 -0.610859 -0.705845 0.358655 0.000000 
-0.013123 1.157210 -1.471716 120 115 107 -0.325182 -0.719930 0.613154 0.000000 
-0.025406 1.181879 -1.378286 75 67 52 -0.119868 0.972825 -0.198098 0.000000 
-0.015279 1.111149 -1.520509 76 63 50 0.721469 0.420994 -0.549769 0.000000 
-0.024218 0.922676 -1.936450 88 74 59 0.974949 0.222274 -0.008232 0.000000 
-0.020103 1.153142 -1.446983 70 59 45 0.735342 0.437900 0.517218 0.000000 
-0.010371 1.114651 -1.505057 112 103 94 -0.955033 -0.286638 -0.075837 0.000000 
-0.015651 1.084681 -1.576802 82 67 50 0.749197 0.414764 -0.516405 0.000000 
-0.017649 1.009966 -1.733757 98 87 73 0.702312 0.657721 -0.272325 0.000000 
-0.024903 1.041446 -1.688791 69 58 46 0.716256 0.428431 -0.550839 0.000000 
-0.019949 1.132890 -1.473765 114 103 90 -0.909992 -0.267301 -0.316963 0.000000 
-0.025948 0.947811 -1.881317 80 66 50 0.985154 0.171578 0.005681 0.000000 
-0.019185 0.974797 -1.807022 80 63 46 -0.542800 -0.794533 0.272187 0.000000 
-0.018535 1.147233 -1.459841 78 66 52 0.700252 0.711708 -0.055848 0.000000 
-0.013401 0.991878 -1.763905 103 92 79 0.126169 0.919229 -0.372960 0.000000 
-0.016319 1.001624 -1.743814 102 95 80 0.409659 0.801647 -0.435363 0.000000 
-0.028660 1.193868 -1.381952 59 49 38 -0.969343 0.118461 -0.215268 0.000000 
-0.009132 1.037182 -1.682839 103 95 80 0.859578 -0.459144 0.224303 0.000000 
-0.016320 1.131190 -1.478377 71 60 47 0.776848 0.245403 -0.579901 0.000000 
-0.021229 1.020730 -1.720693 90 76 60 -0.549943 -0.789460 0.272608 0.000000 
-0.020446 1.086118 -1.582414 96 86 74 -0.736494 -0.481617 0.474997 0.000000 
-0.035115 1.253733 -1.271946 99 83 65 -0.909697 0.322701 -0.261373 0.000000 
-0.006514 0.879630 -1.990124 107 93 74 -0.303709 0.890181 -0.339615 0.000000 
-0.023996 1.081574 -1.606830 83 68 50 0.869343 0.424844 -0.252487 0.000000 
-0.002254 0.833654 -2.093177 98 81 58 0.114277 -0.843336 0.525096 0.000000 
-0.032349 1.202060 -1.337497 116 103 91 -0.568562 -0.815763 0.106151 0.000000 
-0.013334 1.129097 -1.518442 94 88 80 0.817600 0.504942 -0.276702 0.000000 
-0.012975 1.144890 -1.474858 90 80 64 0.978290 0.001158 0.207235 0.000000 
-0.024122 1.187372 -1.370631 72 62 43 0.701902 -0.640587 0.311419 0.000000 
-0.020395 1.116559 -1.526196 72 59 46 -0.824587 -0.480357 0.298854 0.000000 
-0.011780 1.133897 -1.491281 86 77 62 -0.999564 0.011140 0.027344 0.000000 
-0.014631 1.021360 -1.703538 89 73 55 -0.463164 -0.781690 0.417660 0.000000 
-0.032606 1.231382 -1.315687 91 77 63 0.992417 -0.030073 0.119179 0.000000 
-0.020941 0.941114 -1.872111 88 71 54 -0.258304 -0.854390 0.450885 0.000000 
-0.017752 1.099030 -1.559314 77 62 47 0.410716 0.436487 -0.800494 0.000000 
-0.030186 1.229040 -1.325432 96 85 70 -0.832825 0.514258 -0.204793 0.000000 
-0.001245 0.828701 -2.099526 83 64 44 0.015277 -0.768018 0.640246 0.000000 
-0.034918 1.256562 -1.267709 100 86 71 0.975124 -0.197509 0.100618 0.000000 
-0.011808 1.099773 -1.529623 97 88 75 -0.843007 -0.174570 0.508788 0.000000 
-0.018304 1.015506 -1.724383 99 88 74 0.695175 0.561808 -0.448446 0.000000 
-0.025763 1.240517 -1.283445 122 102 75 0.352667 -0.784241 0.510482 0.000000 
-0.014007 1.114300 -1.543043 77 68 53 0.991909 0.106154 -0.069628 0.000000 
-0.022918 1.178374 -1.420036 63 57 48 0.652295 -0.757002 0.038204 0.000000 
-0.011548 1.060371 -1.620841 104 99 87 -0.306019 -0.761043 0.571984 0.000000 
-0.014093 1.070402 -1.604501 89 74 58 -0.706887 -0.550540 0.444091 0.000000 
-0.026040 0.994020 -1.777604 70 58 45 -0.766925 -0.537654 0.350363 0.000000 
-0.025883 0.937145 -1.896516 84 69 53 0.974830 0.214047 -0.062379 0.000000 
-0.007204 0.919296 -1.914052 103 89 71 0.376999 -0.752366 0.540202 0.000000 
-0.018797 1.129517 -1.496387 72 61 46 -0.854742 -0.440415 0.274684 0.000000 
-0.015736 0.902702 -1.954944 87 70 52 0.168577 0.894754 -0.413518 0.000000 
-0.016539 1.176674 -1.409429 93 83 67 0.995188 0.007515 0.097694 0.000000 
-0.018149 1.136378 -1.462646 110 104 92 0.685537 0.398107 -0.609549 0.000000 
-0.018497 0.878693 -2.008265 89 74 57 0.520400 0.844010 -0.129736 0.000000 
-0.015993 1.110226 -1.522142 96 85 73 -0.762325 -0.618142 0.191732 0.000000 
-0.030779 1.217492 -1.320406 94 78 62 -0.988454 -0.125165 0.085393 0.000000 
-0.012625 1.126200 -1.482332 74 64 49 -0.843579 0.471728 -0.256608 0.000000 
-0.016864 1.129710 -1.471637 102 92 77 -0.131790 0.798145 -0.587873 0.000000 
-0.022413 1.073156 -1.626173 60 51 41 -0.776848 -0.579901 0.245403 0.000000 
-0.017484 0.979876 -1.793058 89 72 54 0.507583 0.792599 -0.337855 0.000000 
-0.009164 0.899315 -1.960740 104 90 70 -0.111320 0.889150 -0.443870 0.000000 
-0.019920 1.179482 -1.423908 91 82 69 0.253800 -0.858664 0.445289 0.000000 
-0.027795 1.182019 -1.379776 99 86 71 -0.266523 -0.948390 0.171820 0.000000 
-0.010735 1.084835 -1.569015 65 57 44 0.964591 -0.249704 0.084925 0.000000 
-0.026094 0.918075 -1.943866 121 115 106 0.981179 0.184791 0.056033 0.000000 
-0.028071 1.203986 -1.356483 74 61 46 0.992991 -0.100542 0.062133 0.000000 
-0.025928 1.111585 -1.550981 109 101 92 -0.996895 -0.039876 -0.067897 0.000000 
-0.011712 1.096895 -1.536023 107 92 75 0.368902 -0.755680 0.541164 0.000000 
-0.029484 1.209353 -1.346166 86 69 49 -0.987711 -0.005618 -0.156191 0.000000 
-0.033481 1.252504 -1.254002 117 102 84 0.474670 -0.793262 0.381345 0.000000 
-0.004021 0.828876 -2.100012 98 81 57 0.029276 -0.798820 0.600857 0.000000 
-0.016923 0.978267 -1.795951 103 92 76 -0.488102 -0.768883 0.413009 0.000000 
-0.026932 1.186563 -1.366048 99 88 75 0.335714 0.803485 -0.491638 0.000000 
-0.024071 0.909079 -1.954709 112 104 93 0.888534 0.436397 -0.141650 0.000000 
-0.032979 1.234306 -1.287126 116 97 74 -0.158272 -0.987206 -0.019357 0.000000 
-0.011753 1.189828 -1.393398 140 133 125 -0.976760 0.125993 -0.173397 0.000000 
-0.027378 1.194403 -1.358367 87 73 57 0.854436 0.437189 -0.280721 0.000000 
-0.039590 1.267212 -1.234633 94 78 59 0.993956 0.073002 -0.081987 0.000000 
-0.013168 0.893960 -1.981784 75 57 39 -0.423259 -0.866239 0.265485 0.000000 
-0.011637 1.094693 -1.581239 78 70 61 0.985701 -0.103947 0.132622 0.000000 
-0.020058 1.212795 -1.330694 112 96 72 0.942721 0.045014 0.330531 0.000000 
-0.007374 0.923347 -1.909239 103 88 71 -0.184815 0.780500 -0.597212 0.000000 
-0.021839 0.955847 -1.850982 80 64 47 0.648210 0.734844 -0.199568 0.000000 
-0.025214 0.990905 -1.780837 79 63 46 0.652049 0.554326 -0.517258 0.000000 
-0.023865 1.047493 -1.673499 73 62 49 0.608134 0.641640 -0.467409 0.000000 
-0.023144 0.986839 -1.782133 78 64 48 0.441488 0.753319 -0.487442 0.000000 
-0.011228 1.091819 -1.582135 73 65 54 0.987694 -0.085938 0.130672 0.000000 
-0.016399 1.034721 -1.683490 88 71 54 0.784215 0.517999 -0.341591 0.000000 
-0.021071 1.105657 -1.550744 78 63 47 -0.797773 -0.572017 0.190672 0.000000 
-0.021592 0.870904 -2.040905 104 93 79 -0.844448 -0.499469 0.193488 0.000000 
-0.022625 1.198862 -1.343274 117 101 83 0.187668 -0.891785 0.411705 0.000000 
-0.011440 1.035005 -1.711136 127 123 117 0.211839 -0.765404 0.607685 0.000000 
-0.021980 1.073678 -1.609844 103 97 85 -0.674573 -0.705732 0.216549 0.000000 
-0.024337 1.025397 -1.712465 69 56 41 0.702186 0.617073 -0.355185 0.000000 
-0.005159 0.965411 -1.838096 112 102 92 0.797589 -0.576625 0.177074 0.000000 
-0.011886 1.126421 -1.478534 119 106 89 -0.666464 0.663205 -0.340565 0.000000 
-0.020390 1.160834 -1.458211 73 64 50 0.807219 -0.147717 0.571469 0.000000 
-0.010678 1.112892 -1.544867 114 108 102 0.992410 0.109765 -0.055448 0.000000 
-0.028459 1.214152 -1.315654 102 87 68 0.447460 0.371025 -0.813708 0.000000 
-0.010788 1.073095 -1.603413 80 72 60 -0.951999 -0.049703 0.302040 0.000000 
-0.012342 1.019677 -1.706580 101 92 75 -0.213904 -0.903637 0.371059 0.000000 
-0.028270 0.997958 -1.770527 100 90 77 -0.861339 -0.371347 0.346693 0.000000 
-0.017228 1.103213 -1.541879 88 75 59 -0.669929 -0.737068 0.089032 0.000000 
-0.017880 1.078982 -1.593226 94 83 70 0.759009 0.632256 -0.155423 0.000000 
-0.015657 0.953701 -1.843414 92 74 55 -0.133255 -0.841995 0.522769 0.000000 
-0.018236 1.156835 -1.434502 80 70 60 -0.815862 0.419906 -0.397553 0.000000 
-0.010596 0.807718 -2.125042 88 72 51 0.009600 0.810533 -0.585614 0.000000 
-0.000886 0.867202 -2.020876 102 89 70 0.517177 -0.761898 0.389922 0.000000 
-0.016861 1.131600 -1.484008 73 61 46 0.971022 0.236391 0.035156 0.000000 
-0.024807 1.174361 -1.408106 67 57 46 0.876349 0.257042 0.407359 0.000000 
-0.014509 1.081548 -1.575961 77 67 55 -0.599728 -0.606486 0.522017 0.000000 
-0.013569 0.945899 -1.862756 100 87 69 0.087542 -0.927945 0.362289 0.000000 
-0.011411 0.994761 -1.753639 96 85 70 0.054651 0.836582 -0.545109 0.000000 
-0.016058 1.216565 -1.335224 136 124 113 0.828435 -0.178918 0.530739 0.000000 
-0.018886 1.178452 -1.394643 95 82 63 -0.812061 0.499851 -0.301172 0.000000 
-0.008331 0.926271 -1.905176 104 92 75 -0.020513 0.846511 -0.531976 0.000000 
-0.017778 1.075664 -1.604064 76 61 45 -0.743560 -0.595811 0.303526 0.000000 
-0.030119 1.200326 -1.367689 104 88 68 0.949181 -0.298841 0.098736 0.000000 
-0.015719 1.185370 -1.408309 106 101 93 0.927067 -0.183730 -0.326788 0.000000 
-0.017335 1.163524 -1.422584 90 79 67 0.824420 -0.501483 0.262386 0.000000 
-0.018484 1.134645 -1.487767 88 74 59 -0.926009 -0.351911 0.136624 0.000000 
-0.026245 1.189667 -1.361109 86 77 62 0.169246 -0.892518 0.418052 0.000000 
-0.013342 1.128931 -1.476620 78 67 51 -0.602461 0.534958 -0.592335 0.000000 
-0.019435 1.130827 -1.470067 111 100 87 -0.361717 -0.871477 0.331192 0.000000 
-0.010338 1.100358 -1.563421 101 95 87 -0.997512 0.056786 0.041786 0.000000 
-0.021368 1.215079 -1.326937 109 92 70 0.928387 -0.115878 0.353087 0.000000 
-0.015498 1.066215 -1.624174 87 70 52 0.767844 0.487442 -0.415712 0.000000 
-0.031434 1.213793 -1.321092 119 100 81 -0.970545 -0.231790 0.065695 0.000000 
-0.030910 1.257401 -1.249556 110 90 63 -0.457428 0.530616 -0.713587 0.000000 
-0.009455 0.847999 -2.059630 89 73 53 -0.435362 -0.726707 0.531373 0.000000 
-0.017699 1.054836 -1.653151 87 70 53 0.859531 0.462130 -0.218270 0.000000 
-0.012279 1.126650 -1.485744 70 59 43 0.966914 -0.166977 0.192865 0.000000 
-0.021549 1.142404 -1.479181 95 82 67 0.955095 0.239108 -0.174989 0.000000 
-0.022796 1.055262 -1.659009 100 91 78 -0.635860 -0.632522 0.442265 0.000000 
-0.035767 1.253461 -1.251330 113 94 71 0.604700 -0.510374 0.611438 0.000000 
-0.032671 1.239813 -1.280321 113 92 69 -0.184449 -0.869126 0.458910 0.000000 
-0.022732 1.217765 -1.319827 112 95 71 0.806992 -0.556810 0.196790 0.000000 
-0.029503 1.232173 -1.297250 103 86 67 -0.534534 -0.365563 0.761995 0.000000 
-0.037933 1.250293 -1.255393 111 97 82 -0.005919 -0.971841 0.235562 0.000000 
-0.027053 1.065392 -1.644699 84 68 50 -0.995726 -0.033735 0.085970 0.000000 
-0.018150 1.052845 -1.657117 80 65 49 -0.837021 -0.343917 0.425578 0.000000 
-0.023792 1.011735 -1.743242 75 60 44 -0.628760 -0.530990 0.568076 0.000000 
-0.027407 1.038270 -1.695657 85 70 54 -0.811564 -0.424190 0.401780 0.000000 
-0.026412 1.192766 -1.358137 82 73 57 0.642860 0.538247 -0.544997 0.000000 
-0.016025 1.116690 -1.495283 110 102 94 -0.660634 0.667159 -0.344182 0.000000 
-0.019530 0.982334 -1.790717 100 89 74 0.511089 0.802236 -0.308552 0.000000 
-0.039859 1.250641 -1.257561 140 130 117 0.977526 0.202288 0.059354 0.000000 
-0.027740 1.182106 -1.379194 91 79 66 0.300103 -0.815462 0.494934 0.000000 
-0.012321 1.095196 -1.562650 68 57 41 0.836224 0.078351 0.542762 0.000000 
-0.030406 1.194467 -1.353311 101 93 81 -0.439221 0.663006 -0.606225 0.000000 
-0.017655 1.020204 -1.712281 81 67 52 -0.559373 -0.767736 0.312544 0.000000 
-0.021259 1.197319 -1.355098 93 80 61 0.535660 -0.623529 0.569456 0.000000 
-0.022990 0.912734 -1.940402 96 85 70 0.855526 0.489083 -0.169923 0.000000 
-0.027438 0.989436 -1.790003 83 68 51 -0.860205 -0.468251 0.201961 0.000000 
-0.011671 1.077166 -1.580491 84 76 65 0.415245 0.892705 -0.175069 0.000000 
-0.011497 1.101000 -1.530120 105 96 83 0.442709 0.599745 -0.666569 0.000000 
-0.011944 1.057021 -1.628559 93 78 60 -0.526218 -0.811835 0.253019 0.000000 
-0.011250 1.081933 -1.590199 69 60 46 -0.880946 0.473125 0.009329 0.000000 
-0.018499 0.958356 -1.833215 84 68 51 -0.329971 -0.884442 0.329971 0.000000 
-0.018259 1.168095 -1.414523 99 86 65 0.897482 -0.240213 0.369898 0.000000 
-0.014694 1.154739 -1.447803 91 79 60 0.959170 -0.218898 -0.179098 0.000000 
-0.013437 0.984148 -1.778540 90 75 58 0.357714 0.830463 -0.427050 0.000000 
-0.005177 0.839455 -2.079540 81 62 42 0.001263 -0.933019 0.359825 0.000000 
-0.016668 1.058274 -1.635060 96 86 72 0.766336 0.605328 -0.215193 0.000000 
-0.039153 1.269792 -1.224842 101 87 70 0.941960 0.271693 -0.197219 0.000000 
-0.008770 1.021353 -1.713881 114 106 95 -0.776470 0.476951 -0.411839 0.000000 
-0.029837 1.228730 -1.326355 100 85 67 -0.740607 0.627393 -0.240579 0.000000 
-0.005859 0.950537 -1.865667 108 97 84 -0.665132 0.571310 -0.480838 0.000000 
-0.031271 1.235868 -1.306378 95 79 63 -0.980333 0.188387 -0.058796 0.000000 
-0.019910 1.157438 -1.464089 71 63 49 0.998102 -0.045609 0.041367 0.000000 
-0.020807 1.210200 -1.327920 108 91 67 0.644724 -0.526889 0.553823 0.000000 
-0.013525 1.062883 -1.620235 89 72 54 0.787982 0.351462 -0.505528 0.000000 
-0.018230 0.972996 -1.810268 76 62 46 0.567899 0.740384 -0.359615 0.000000 
-0.017997 1.135382 -1.470298 84 70 54 -0.467180 0.527033 0.709915 0.000000 
-0.028867 1.264380 -1.244625 96 81 66 -0.480021 0.740651 -0.470124 0.000000 
-0.011270 1.133481 -1.484377 81 71 56 0.999639 -0.025269 -0.009097 0.000000 
-0.027141 1.246710 -1.273486 115 96 70 -0.413475 0.802816 -0.429563 0.000000 
-0.009384 0.927948 -1.903203 101 85 67 0.020630 -0.832085 0.554265 0.000000 
-0.023391 1.092056 -1.573045 111 104 95 0.804280 0.587687 -0.088081 0.000000 
-0.003209 0.880646 -1.992198 106 89 69 0.557725 -0.771866 0.305231 0.000000 
-0.023181 1.090986 -1.584114 65 54 41 -0.836359 -0.398491 0.376441 0.000000 
-0.017151 1.161145 -1.436882 85 73 55 0.808015 -0.314667 0.498092 0.000000 
-0.016345 0.883061 -1.994223 87 70 51 0.685547 0.694916 -0.217064 0.000000 
-0.033659 1.253239 -1.253408 112 91 66 -0.363898 0.844930 -0.392010 0.000000 
-0.019832 1.106445 -1.539871 73 60 47 -0.788731 -0.534814 0.303114 0.000000 
-0.016745 1.168980 -1.426334 92 82 67 0.967901 -0.071188 0.241039 0.000000 
-0.030129 1.246600 -1.269034 116 95 70 -0.688570 0.612613 -0.388043 0.000000 
-0.009218 1.078065 -1.585169 107 94 77 0.667499 0.689909 -0.280126 0.000000 
-0.021787 1.222224 -1.324492 117 103 81 0.985961 -0.166785 -0.007942 0.000000 
-0.024691 1.095366 -1.584022 66 55 42 0.984091 0.154626 -0.087501 0.000000 
-0.017770 0.988773 -1.775913 89 72 54 0.415340 0.829100 -0.374280 0.000000 
-0.011406 1.095038 -1.546144 72 63 50 0.990935 0.009965 0.133970 0.000000 
-0.026964 1.230372 -1.285987 108 98 87 0.070597 0.993958 -0.084044 0.000000 
-0.023442 0.883676 -2.016679 117 110 101 -0.905060 -0.419085 0.072350 0.000000 
-0.020644 1.253855 -1.255659 117 99 80 0.526503 -0.719167 0.453424 0.000000 
-0.021167 1.080775 -1.601804 66 56 44 -0.705845 -0.610859 0.358655 0.000000 
-0.010552 0.973514 -1.797511 96 83 67 -0.215514 0.878404 -0.426568 0.000000 
-0.026225 0.935784 -1.896266 96 87 76 -0.937232 -0.332132 0.106229 0.000000 
-0.015248 1.122647 -1.489016 82 73 62 0.742578 -0.237060 0.626403 0.000000 
-0.015664 1.084165 -1.577082 88 75 60 0.798859 0.538328 -0.268379 0.000000 
-0.013619 0.848311 -2.063468 83 65 46 0.538155 0.619132 -0.571896 0.000000 
-0.010853 1.103739 -1.523831 112 98 81 -0.879031 0.329447 -0.344629 0.000000 
-0.025662 1.086105 -1.612713 88 76 61 0.999429 -0.005063 -0.033416 0.000000 
-0.007370 1.030651 -1.694715 121 115 105 0.775221 -0.596442 0.208061 0.000000 
-0.017565 0.863387 -2.043302 88 73 56 0.680652 0.627914 -0.377408 0.000000 
0.005027 0.833258 -2.095341 96 79 61 -0.168370 0.766008 -0.620390 0.000000 
-0.024678 1.111365 -1.555235 84 72 57 -0.922738 0.351453 -0.158224 0.000000 
-0.019910 1.210729 -1.341228 108 94 74 0.963516 -0.243130 -0.111917 0.000000 
-0.024603 1.080791 -1.606824 90 81 69 0.862189 0.443975 -0.243959 0.000000 
-0.020773 0.968835 -1.817814 82 65 48 -0.478283 -0.629320 0.612538 0.000000 
-0.014968 1.054075 -1.642550 76 66 56 0.776882 0.532397 -0.336166 0.000000 
-0.014882 1.140741 -1.462956 76 67 52 -0.828279 0.526538 -0.191605 0.000000 
-0.039863 1.268236 -1.232446 98 81 62 -0.973273 -0.101200 0.206149 0.000000 
-0.013117 1.066684 -1.608730 84 74 60 -0.583774 -0.784014 0.211021 0.000000 
-0.010514 1.079272 -1.574624 102 91 76 -0.705390 -0.586448 0.398124 0.000000 
-0.017220 1.148972 -1.444530 84 71 53 0.831239 -0.499358 0.244301 0.000000 
-0.024754 1.256792 -1.256134 117 100 75 0.540552 -0.658429 0.523712 0.000000 
-0.016037 1.057044 -1.633280 105 96 84 0.681465 0.671845 -0.290224 0.000000 
-0.020552 1.170134 -1.439404 65 58 47 0.650499 -0.482412 0.586626 0.000000 
-0.014439 1.127486 -1.477348 94 85 71 0.022740 -0.886856 0.461486 0.000000 
-0.020227 1.213438 -1.334709 111 97 76 -0.976031 0.113434 -0.185733 0.000000 
-0.011841 1.136581 -1.488559 88 79 64 -0.999876 -0.012960 0.008972 0.000000 
-0.014701 1.008794 -1.730710 84 68 52 0.472171 0.794472 -0.381927 0.000000 
-0.015078 1.123945 -1.480400 102 94 84 0.273259 -0.859468 0.432024 0.000000 
-0.015352 1.104614 -1.528939 82 67 51 -0.361733 -0.543411 0.757531 0.000000 
-0.012058 1.000897 -1.745383 101 90 75 -0.092305 -0.861991 0.498449 0.000000 
-0.028009 0.988540 -1.792552 86 72 55 -0.850752 -0.505180 0.144965 0.000000 
-0.010626 0.906821 -1.945181 89 72 53 -0.056475 0.933805 -0.353296 0.000000 
-0.033817 1.240682 -1.290684 106 85 64 0.935835 0.330055 0.123601 0.000000 
-0.024182 1.183030 -1.407891 58 50 39 0.855514 -0.406872 0.320237 0.000000 
-0.022759 0.918783 -1.947711 76 61 46 0.994762 0.102165 0.003226 0.000000 
-0.014786 1.144063 -1.460286 77 67 52 0.971999 -0.030186 0.233038 0.000000 
-0.017184 0.973296 -1.805669 80 64 48 0.506837 0.818736 -0.269793 0.000000 
-0.015440 1.094020 -1.556927 85 70 54 -0.848633 0.080755 0.522781 0.000000 
-0.021580 0.979228 -1.797422 104 94 77 0.577876 0.734147 -0.356493 0.000000 
-0.013916 0.985469 -1.777454 100 89 73 0.374770 0.830186 -0.412721 0.000000 
-0.012972 1.102484 -1.523282 106 97 86 0.692203 -0.589286 0.416650 0.000000 
-0.010057 0.964775 -1.815047 95 79 62 0.273897 -0.812300 0.514926 0.000000 
-0.012104 0.866807 -2.027485 91 76 56 0.507782 0.839271 -0.194373 0.000000 
-0.020475 1.152221 -1.437512 99 93 80 -0.466380 0.827550 -0.312490 0.000000 
-0.020848 0.987864 -1.776270 109 99 80 0.409690 0.827288 -0.384381 0.000000 
-0.011408 1.096522 -1.542572 97 91 82 0.935386 -0.321838 0.146539 0.000000 
-0.014605 0.859894 -2.041698 100 88 66 0.539055 0.742225 -0.398147 0.000000 
-0.024787 1.107199 -1.552922 100 90 79 0.879618 0.459118 -0.124434 0.000000 
-0.029025 1.210117 -1.324024 117 101 83 0.895549 0.326331 0.302490 0.000000 
-0.022483 0.911930 -1.951187 76 60 44 0.964047 0.234218 -0.125520 0.000000 
-0.026658 1.187955 -1.395433 66 57 44 0.914524 -0.268125 0.302909 0.000000 
-0.014707 1.095932 -1.541743 102 93 80 0.875837 -0.464524 0.130872 0.000000 
-0.012991 1.134588 -1.472100 72 61 42 0.973191 -0.083062 0.214474 0.000000 
-0.004125 1.078138 -1.559011 112 107 100 -0.645937 -0.688240 0.330290 0.000000 
-0.019979 1.151270 -1.467407 69 59 46 0.979457 0.036804 -0.198266 0.000000 
-0.009871 0.982057 -1.779536 100 87 72 0.194266 -0.835795 0.513525 0.000000 
-0.029438 1.210299 -1.323650 106 87 67 -0.899803 -0.297958 -0.318711 0.000000 
-0.023946 1.175422 -1.412021 64 54 40 -0.986936 -0.148684 -0.062049 0.000000 
-0.023069 0.962609 -1.833860 76 60 44 -0.701420 -0.609430 0.369601 0.000000 
-0.012371 1.102296 -1.557124 73 63 48 0.967110 -0.238933 0.087230 0.000000 
-0.001298 0.895649 -1.974447 102 90 73 0.708292 -0.576210 0.407805 0.000000 
-0.017718 0.893560 -1.982542 88 71 52 -0.460331 -0.624376 0.631071 0.000000 
-0.034786 1.288145 -1.211503 107 100 92 -0.513469 0.550506 -0.658250 0.000000 
-0.011357 0.940687 -1.875824 96 79 60 0.251683 -0.919004 0.303458 0.000000 
-0.022544 1.238453 -1.271288 121 111 101 0.520204 -0.408615 0.749948 0.000000 
-0.020913 1.115235 -1.556234 90 81 68 -0.756781 0.602592 -0.253309 0.000000 
-0.024868 1.221928 -1.341218 99 88 73 0.152668 -0.947080 0.282368 0.000000 
-0.025119 1.177399 -1.387811 95 80 64 -0.129998 -0.912785 0.387200 0.000000 
-0.026561 1.179729 -1.381880 80 71 56 -0.001112 -0.988665 0.150135 0.000000 
-0.010347 1.054251 -1.638429 102 95 83 -0.291055 -0.870117 0.397724 0.000000 
-0.020306 0.932825 -1.889538 103 92 75 0.342158 0.785517 -0.515646 0.000000 
-0.013953 1.079347 -1.579414 96 86 75 -0.652610 -0.706861 0.272852 0.000000 
-0.020022 0.867803 -2.036085 109 100 85 0.693379 0.654768 -0.300839 0.000000 
-0.039534 1.264160 -1.235327 102 87 69 0.930882 0.324209 -0.168366 0.000000 
-0.024642 1.185129 -1.367538 110 95 77 0.858312 -0.335592 0.388173 0.000000 
-0.023569 1.184311 -1.370940 108 94 77 -0.818335 0.525522 -0.232709 0.000000 
-0.021928 0.912073 -1.946254 77 60 44 0.881765 0.444502 -0.157820 0.000000 
-0.011992 1.130410 -1.492236 82 71 54 0.889139 -0.430879 -0.154194 0.000000 
-0.022767 0.918847 -1.935104 77 62 46 0.912337 0.394562 -0.109370 0.000000 
-0.012886 1.105945 -1.522094 93 81 65 0.956021 0.108253 0.272590 0.000000 
-0.015196 1.042401 -1.666414 84 68 51 -0.857405 -0.461214 0.228339 0.000000 
-0.022277 1.086443 -1.590312 80 64 47 -0.770133 -0.615195 0.168609 0.000000 
-0.015752 1.090436 -1.562137 78 64 48 -0.629880 -0.698239 0.340168 0.000000 
-0.039682 1.269874 -1.232468 94 76 59 0.999211 -0.031901 0.023668 0.000000 
-0.026432 1.180655 -1.384547 85 70 53 0.034343 0.853084 -0.520642 0.000000 
-0.015715 1.127426 -1.477575 91 80 67 0.437717 0.893614 -0.099290 0.000000 
-0.022609 1.094299 -1.579015 64 54 42 0.878577 0.432644 -0.202294 0.000000 
-0.026131 1.024596 -1.709466 114 109 99 -0.736983 -0.529243 0.420426 0.000000 
-0.038238 1.255491 -1.247935 105 89 71 0.665502 0.731901 -0.146380 0.000000 
-0.018171 1.159363 -1.433553 76 68 53 0.844165 -0.151743 0.514160 0.000000 
-0.013707 1.106527 -1.546361 73 63 48 0.700318 -0.290063 0.652241 0.000000 
-0.009010 1.087027 -1.559666 104 93 78 0.819917 0.501321 -0.276429 0.000000 
-0.013002 1.191320 -1.389767 126 118 108 0.920071 -0.339872 0.194822 0.000000 
-0.019048 1.127988 -1.529772 87 77 64 -0.711821 0.627887 -0.314751 0.000000 
-0.022667 1.098108 -1.564115 68 55 40 0.815712 0.391095 -0.426214 0.000000 
-0.014668 1.188217 -1.405258 114 108 100 0.843747 0.223479 -0.488005 0.000000 
-0.024471 1.175806 -1.400768 78 66 50 0.953268 0.299238 -0.041666 0.000000 
-0.022415 1.109797 -1.544267 76 61 46 -0.886085 -0.414293 0.207883 0.000000 
-0.023747 1.176703 -1.393292 90 76 59 0.485427 0.752000 -0.445934 0.000000 
-0.015021 1.163208 -1.435364 92 84 73 -0.906929 0.370558 -0.200418 0.000000 
-0.020601 1.185883 -1.381413 83 69 56 0.795164 -0.477098 0.374289 0.000000 
-0.021240 1.131861 -1.501611 89 76 62 -0.949908 -0.281899 0.134938 0.000000 
-0.029388 1.203460 -1.333117 112 97 83 0.171952 -0.913763 0.368063 0.000000 
-0.012275 1.121210 -1.520819 78 69 55 0.602262 -0.742843 -0.292345 0.000000 
-0.016258 1.128072 -1.480518 80 71 62 -0.917518 -0.339238 0.207551 0.000000 
-0.016252 1.118354 -1.491275 113 106 96 -0.356385 0.862421 -0.359471 0.000000 
-0.015110 1.141582 -1.461057 80 69 51 0.851629 -0.378329 0.362760 0.000000 
-0.011644 0.910882 -1.935993 102 88 67 0.053310 0.940079 -0.336764 0.000000 
-0.018923 1.103932 -1.546642 84 68 52 -0.310312 -0.904464 0.292664 0.000000 
-0.021613 0.967712 -1.822089 82 64 47 0.641268 0.726350 -0.247369 0.000000 
-0.024962 1.221358 -1.306516 113 91 62 0.694464 -0.665727 0.272996 0.000000 
-0.016264 1.046479 -1.658673 100 91 76 -0.744272 -0.600220 0.292907 0.000000 
-0.022463 1.145456 -1.485443 93 82 66 -0.987708 -0.078688 0.135061 0.000000 
-0.024861 1.179119 -1.400157 75 61 46 0.994856 0.095427 -0.034003 0.000000 
-0.024826 1.245475 -1.278220 126 110 93 -0.523309 0.647826 -0.553597 0.000000 
-0.012331 1.016678 -1.711954 96 80 62 0.216003 0.919801 -0.327581 0.000000 
-0.019486 1.070631 -1.622547 77 61 44 -0.686266 -0.679926 0.258340 0.000000 
-0.023336 1.002431 -1.756777 102 92 79 0.680355 0.680355 -0.272461 0.000000 
-0.033639 1.272652 -1.239950 95 86 75 0.342914 0.583442 -0.736210 0.000000 
-0.023596 1.175566 -1.417935 66 56 42 -0.965662 -0.232118 -0.116700 0.000000 
-0.020094 1.070550 -1.624336 82 65 47 0.706421 0.658797 -0.258757 0.000000 
-0.020539 0.891121 -1.988488 78 59 42 0.720097 0.497250 -0.483945 0.000000 
-0.027624 1.220721 -1.302700 117 99 80 -0.233927 0.730040 -0.642121 0.000000 
-0.012176 1.196644 -1.376275 133 125 117 -0.942626 0.202286 -0.265587 0.000000 
-0.011967 1.095791 -1.540509 101 94 83 -0.712849 0.655947 -0.248154 0.000000 
-0.011740 1.112333 -1.528975 76 65 48 0.957478 -0.057068 0.282805 0.000000 
-0.020826 1.225998 -1.303837 125 108 90 0.805445 -0.497247 0.322496 0.000000 
-0.021479 1.138608 -1.473595 108 98 85 -0.999271 -0.013296 0.035798 0.000000 
-0.013353 1.000164 -1.745238 88 74 58 0.182457 0.861852 -0.473203 0.000000 
-0.037754 1.255670 -1.246998 109 94 77 0.876074 0.443190 -0.189939 0.000000 
-0.016084 1.086116 -1.575685 73 60 44 0.676957 0.620681 -0.395581 0.000000 
-0.014558 1.030317 -1.687012 98 87 73 0.510503 0.792160 -0.334468 0.000000 
-0.014305 0.942796 -1.869755 101 88 69 0.149349 -0.935828 0.319250 0.000000 
-0.025424 0.946847 -1.870425 82 67 52 -0.804507 -0.521119 0.284962 0.000000 
-0.020987 1.155508 -1.433077 81 72 58 0.637203 -0.443199 0.630513 0.000000 
-0.036534 1.244900 -1.271948 112 89 68 0.956363 0.276398 -0.094728 0.000000 
-0.026795 1.219027 -1.311301 107 86 59 0.442368 -0.676072 0.589268 0.000000 
-0.027574 1.245212 -1.275569 115 96 70 0.555548 -0.662965 0.501840 0.000000 
-0.026491 1.081266 -1.619117 93 78 61 0.911266 0.376733 -0.166331 0.000000 
-0.014104 1.119555 -1.493612 97 86 71 0.554326 -0.652049 0.517258 0.000000 
-0.018012 1.073992 -1.607215 92 81 68 -0.663619 -0.682995 0.305168 0.000000 
-0.013694 1.024667 -1.693539 103 96 82 0.226607 0.841033 -0.491236 0.000000 
-0.026472 1.180356 -1.384795 105 94 83 0.031866 0.827125 -0.561115 0.000000 
-0.010224 0.962932 -1.823029 97 86 70 0.399138 -0.770580 0.496886 0.000000 
-0.025770 1.181828 -1.400772 72 59 43 0.988166 0.061543 0.140503 0.000000 
-0.014467 1.031466 -1.686761 89 72 54 0.484495 0.790322 -0.375041 0.000000 
-0.011981 1.103164 -1.565429 78 70 59 -0.947017 0.319062 0.036864 0.000000 
-0.013024 1.139117 -1.472474 76 64 47 0.975919 -0.044634 0.213520 0.000000 
-0.012122 1.139205 -1.481329 89 78 61 0.995937 0.049196 0.075433 0.000000 
-0.016918 1.123225 -1.499031 86 73 58 0.626297 0.757988 -0.182223 0.000000 
-0.032443 1.261663 -1.238973 106 86 67 0.419455 -0.785466 0.455084 0.000000 
-0.018442 1.142031 -1.471486 77 66 51 0.632550 0.152476 -0.759362 0.000000 
-0.026537 1.233246 -1.290254 118 97 71 -0.411336 0.824259 -0.389101 0.000000 
-0.015844 1.053343 -1.645763 84 68 51 0.860542 0.434079 -0.266540 0.000000 
-0.020162 1.007773 -1.743138 83 66 49 0.598499 0.608615 -0.520947 0.000000 
-0.022918 1.163996 -1.412282 104 90 74 0.025890 0.960407 -0.277396 0.000000 
-0.024863 1.215822 -1.317056 104 88 64 -0.733653 0.525922 -0.430300 0.000000 
-0.025780 1.229498 -1.301102 109 96 80 -0.351373 0.674964 -0.648815 0.000000 
-0.015021 0.839198 -2.082617 87 72 53 -0.481451 -0.782966 0.393915 0.000000 
-0.020083 0.850556 -2.070570 90 75 58 0.762773 0.549906 -0.340265 0.000000 
-0.019459 1.213469 -1.351830 115 108 97 -0.955210 0.097470 -0.279415 0.000000 
-0.035704 1.255951 -1.242588 114 99 82 -0.042288 -0.879859 0.473350 0.000000 
-0.018558 1.184068 -1.387143 93 81 63 0.868595 -0.398424 0.294620 0.000000 
-0.018317 1.078923 -1.599950 85 69 52 -0.754504 -0.571106 0.323359 0.000000 
-0.020226 1.152281 -1.434838 91 80 64 0.508102 0.224297 0.831579 0.000000 
-0.022215 1.046756 -1.674143 92 80 65 -0.514051 -0.710355 0.480779 0.000000 
-0.031370 1.279544 -1.218413 113 97 72 0.646014 -0.538064 0.541437 0.000000 
-0.028419 1.227237 -1.294289 103 92 81 0.086032 0.654720 -0.750960 0.000000 
-0.014597 1.099407 -1.536607 78 68 55 -0.806928 -0.517504 0.284706 0.000000 
-0.019822 1.202576 -1.354620 98 86 67 0.916871 -0.198204 0.346500 0.000000 
-0.019405 1.138667 -1.463625 100 85 67 0.980627 -0.043873 0.190908 0.000000 
-0.019777 0.942478 -1.869444 85 68 51 -0.165728 -0.831626 0.530031 0.000000 
-0.037911 1.247147 -1.261857 142 131 118 -0.992292 0.114018 -0.048542 0.000000 
-0.021975 0.873762 -2.028707 109 100 86 -0.695605 -0.676677 0.241332 0.000000 
-0.026510 1.176628 -1.401930 94 79 62 0.996072 0.058077 0.066843 0.000000 
-0.010416 1.072876 -1.597367 104 98 87 0.956790 -0.212175 0.198831 0.000000 
-0.016904 0.956861 -1.837389 82 68 52 -0.239081 -0.902055 0.359355 0.000000 
-0.013922 1.132334 -1.472815 77 66 47 0.890490 -0.359478 0.278931 0.000000 
-0.020338 1.207511 -1.341185 103 87 65 0.958273 -0.208667 -0.195376 0.000000 
-0.015239 1.146384 -1.455609 82 71 53 -0.957314 0.110710 -0.267006 0.000000 
-0.028092 1.070968 -1.629212 118 115 107 -0.827993 -0.372043 0.419538 0.000000 
-0.011917 1.047551 -1.647327 108 103 91 -0.377168 -0.855224 0.355438 0.000000 
-0.002078 0.820157 -2.115635 93 74 49 0.084249 -0.899114 0.429531 0.000000 
-0.009333 0.875644 -1.999848 105 92 72 0.160050 0.950885 -0.264957 0.000000 
-0.024380 1.008600 -1.745756 94 84 71 0.588264 0.618604 -0.520841 0.000000 
-0.012605 1.112730 -1.502613 98 90 80 0.634904 -0.493440 0.594486 0.000000 
-0.016405 1.107327 -1.530596 79 63 47 0.929671 0.287250 -0.230649 0.000000 
-0.015893 1.069228 -1.617154 78 63 46 -0.714219 -0.696904 -0.064929 0.000000 
-0.010816 1.065277 -1.608480 99 87 71 0.408234 0.863867 -0.295091 0.000000 
-0.036338 1.272057 -1.239092 90 78 65 -0.714537 0.491348 -0.498010 0.000000 
-0.022747 1.021341 -1.719686 93 82 68 -0.574829 -0.778447 0.252173 0.000000 
-0.031585 1.188668 -1.361098 133 128 115 0.163486 -0.982129 0.093248 0.000000 
-0.028893 1.210310 -1.322856 118 103 87 0.726658 -0.593356 0.346260 0.000000 
-0.020877 1.209080 -1.351402 102 91 74 0.919507 -0.221654 0.324616 0.000000 
-0.020096 1.150433 -1.480797 81 72 58 0.972760 -0.225797 -0.052483 0.000000 
-0.007650 0.881720 -1.984571 108 95 74 0.015354 -0.738398 0.674190 0.000000 
-0.010601 1.112980 -1.508112 66 57 44 -0.998373 0.053428 -0.019905 0.000000 
-0.022797 1.187892 -1.369363 72 61 43 0.536406 -0.806941 0.247213 0.000000 
-0.023207 1.039099 -1.690040 71 59 46 0.672513 0.531637 -0.514867 0.000000 
-0.025092 1.184061 -1.403008 64 54 40 0.981247 -0.060954 0.182863 0.000000 
-0.021356 0.885313 -1.999135 97 85 70 0.895605 0.323371 -0.305489 0.000000 
-0.020456 1.155208 -1.446111 67 57 44 0.936710 0.309486 0.163684 0.000000 
-0.035054 1.245418 -1.285846 95 78 61 0.998329 -0.053426 0.021999 0.000000 
-0.010790 1.092542 -1.545461 86 77 65 0.971381 0.228342 0.065417 0.000000 
-0.031882 1.234120 -1.306372 94 79 64 0.979335 -0.196821 0.046521 0.000000 
-0.026810 1.017826 -1.735425 101 93 84 0.834349 0.497548 -0.237292 0.000000 
-0.020800 1.126453 -1.530966 84 74 60 -0.866487 0.404972 -0.291886 0.000000 
-0.011219 1.092872 -1.550020 100 92 83 0.884242 0.454147 -0.108939 0.000000 
-0.014923 1.052824 -1.644084 87 71 54 -0.812514 -0.462703 0.354580 0.000000 
-0.036967 1.243615 -1.265760 125 107 90 -0.394424 0.688180 -0.608965 0.000000 
-0.028071 1.203986 -1.356483 74 61 46 -0.992991 0.100542 -0.062133 0.000000 
-0.027186 1.078959 -1.625039 102 96 86 0.919229 0.372960 -0.126169 0.000000 
-0.027996 1.199534 -1.352501 98 80 61 -0.888003 0.078964 -0.453006 0.000000 
-0.021836 0.874838 -2.028438 98 83 67 0.756448 0.598526 -0.263730 0.000000 
-0.021160 1.165691 -1.412453 91 77 58 -0.229218 0.923993 -0.306099 0.000000 
-0.029147 0.951892 -1.869863 116 109 99 -0.991841 -0.118749 0.046369 0.000000 
-0.005814 1.079369 -1.556523 116 110 102 -0.652879 -0.672515 0.348529 0.000000 
-0.020141 1.205191 -1.340942 101 83 60 0.810263 -0.559790 -0.173520 0.000000 
-0.020569 1.158296 -1.432773 78 69 57 -0.523575 0.316692 -0.790933 0.000000 
-0.014715 1.030313 -1.689967 85 69 51 -0.471434 -0.803835 0.362765 0.000000 
-0.013393 1.075722 -1.589775 92 80 67 0.600786 0.634444 -0.486351 0.000000 
-0.010850 1.056395 -1.655998 90 82 67 0.030497 0.905626 -0.422979 0.000000 
-0.017144 1.197446 -1.365016 111 102 93 -0.889814 0.316612 -0.328616 0.000000 
-0.027947 1.202713 -1.371121 88 73 55 -0.819370 0.556581 -0.137300 0.000000 
-0.021471 1.228794 -1.307383 133 113 84 0.932664 -0.329256 0.147408 0.000000 
-0.008612 1.067914 -1.601802 103 93 80 0.843579 -0.471728 0.256608 0.000000 
-0.027378 1.012894 -1.749429 78 64 48 -0.921522 -0.274588 0.274588 0.000000 
-0.018285 0.985747 -1.780759 87 70 52 0.389860 0.755252 -0.526882 0.000000 
-0.024635 0.997196 -1.769117 90 77 62 0.710737 0.564945 -0.419153 0.000000 
-0.034481 1.247451 -1.283928 96 78 60 0.978808 -0.142305 0.147254 0.000000 
-0.023386 1.185782 -1.377767 69 59 43 0.680436 -0.657701 0.323167 0.000000 
-0.037931 1.255648 -1.245423 112 94 75 0.694966 0.698021 -0.172596 0.000000 
-0.016090 1.182149 -1.418953 116 110 99 -0.945072 -0.212607 0.248270 0.000000 
-0.024813 1.216240 -1.316576 105 88 64 0.760890 -0.482715 0.433626 0.000000 
-0.016090 1.182149 -1.418953 116 110 99 0.945072 0.212607 -0.248270 0.000000 
-0.004863 0.947429 -1.871844 111 100 86 -0.643598 0.716698 -0.268563 0.000000 
-0.017029 0.943114 -1.866129 89 72 54 -0.169013 -0.894177 0.414586 0.000000 
-0.016094 1.164436 -1.437770 88 77 61 0.728375 -0.577789 0.368279 0.000000 
-0.005643 0.975141 -1.805263 107 93 76 -0.625234 0.697062 -0.350980 0.000000 
-0.012041 1.098398 -1.546056 68 59 46 -0.919346 0.243145 0.309326 0.000000 
-0.017260 1.132384 -1.486092 77 64 48 0.866940 0.406807 -0.287964 0.000000 
-0.015989 1.195064 -1.372629 105 93 73 0.838378 -0.430942 0.333784 0.000000 
-0.017782 1.184335 -1.382674 111 98 84 0.860702 -0.312563 0.401866 0.000000 
-0.011101 0.914289 -1.926422 107 94 72 -0.231082 0.942318 -0.242152 0.000000 
-0.023315 1.103824 -1.565397 62 53 41 0.995215 0.088878 -0.040599 0.000000 
-0.030061 1.188847 -1.373579 87 70 52 0.976518 0.215046 -0.012926 0.000000 
-0.021158 1.108747 -1.539634 89 73 57 0.819446 0.434386 -0.373922 0.000000 
-0.027845 1.207994 -1.327276 119 102 85 -0.091157 0.803048 -0.588902 0.000000 
-0.020706 1.157441 -1.444001 74 60 43 0.993852 0.105257 -0.034347 0.000000 
-0.015893 1.069228 -1.617154 78 63 46 -0.714219 -0.696904 -0.064929 0.000000 
-0.036850 1.248337 -1.263653 104 88 70 0.979921 0.083785 -0.180927 0.000000 
-0.020647 1.209908 -1.328637 107 91 67 -0.625311 0.524182 -0.578117 0.000000 
-0.032159 1.223678 -1.305212 101 85 70 0.707533 0.602470 -0.369362 0.000000 
-0.037612 1.266250 -1.226829 104 88 69 -0.511596 0.711569 -0.481600 0.000000 
0.009542 0.822750 -2.117145 103 90 74 0.367924 -0.879686 0.301304 0.000000 
-0.018442 1.152066 -1.435693 107 96 82 0.758008 -0.509158 0.407654 0.000000 
-0.011823 1.135430 -1.481784 84 72 53 0.996231 0.024825 0.083109 0.000000 
-0.011659 1.150666 -1.476060 104 98 86 0.997167 0.028857 0.069470 0.000000 
-0.023535 0.980365 -1.801911 75 59 43 0.703083 0.608028 -0.368750 0.000000 
-0.008991 0.943536 -1.871881 98 86 69 0.402458 -0.840934 0.361743 0.000000 
-0.021359 1.196919 -1.355600 92 80 61 -0.740739 0.185568 -0.645655 0.000000 
0.001725 0.846779 -2.059652 97 80 60 -0.424162 0.734444 -0.529790 0.000000 
-0.039288 1.279297 -1.214580 118 103 87 -0.676821 -0.596999 0.430704 0.000000 
-0.011899 1.136185 -1.488102 88 78 63 -0.999972 -0.006896 -0.002956 0.000000 
0.000433 0.888914 -1.990499 105 93 76 0.894864 -0.439849 0.075836 0.000000 
-0.017805 1.142996 -1.452165 92 82 67 -0.450407 0.816462 -0.361280 0.000000 
-0.020800 0.887406 -2.000272 82 65 47 0.924117 0.298517 -0.238528 0.000000 
-0.038579 1.236180 -1.282977 118 102 86 0.238608 -0.930432 0.278141 0.000000 
-0.017651 1.181523 -1.393821 96 85 66 0.797182 -0.547575 0.254287 0.000000 
-0.019579 1.047630 -1.657244 103 98 89 0.815712 0.498229 -0.293908 0.000000 
-0.011357 0.873149 -2.014960 87 68 48 -0.539280 -0.573091 0.617045 0.000000 
-0.007745 1.096185 -1.586609 127 123 118 0.995212 -0.096381 0.016244 0.000000 
-0.020859 1.151921 -1.459209 95 81 65 0.992323 0.123630 -0.003282 0.000000 
-0.012262 1.129839 -1.485567 75 64 46 -0.996168 0.086670 -0.011770 0.000000 
-0.022678 1.043612 -1.681322 79 65 49 0.587815 0.769646 -0.249234 0.000000 
-0.014979 1.151521 -1.446019 90 78 58 -0.887476 0.460420 -0.020018 0.000000 
-0.004254 0.977329 -1.801361 106 91 74 -0.807824 0.331700 -0.487233 0.000000 
-0.028161 1.190075 -1.358788 98 89 76 0.414114 -0.754572 0.509049 0.000000 
-0.013647 1.115624 -1.549874 101 95 86 -0.958842 -0.283876 0.006092 0.000000 
-0.015298 0.951782 -1.845304 93 77 58 0.081580 0.929474 -0.359753 0.000000 
-0.019123 1.136399 -1.463482 118 108 98 0.007677 0.992533 0.121736 0.000000 
-0.023869 0.919378 -1.949296 94 82 68 0.997402 0.070715 -0.013721 0.000000 
-0.032914 1.221696 -1.323113 126 108 90 -0.996089 0.066698 0.057950 0.000000 
-0.016689 1.071397 -1.614446 86 69 51 0.774019 0.610430 -0.168133 0.000000 
-0.015930 1.100782 -1.541137 90 78 64 0.709201 0.675060 -0.203294 0.000000 
-0.020378 1.144100 -1.446509 93 82 69 0.659445 -0.639612 0.395006 0.000000 
-0.024944 1.200448 -1.344496 85 72 53 -0.117352 0.953322 -0.278217 0.000000 
-0.021807 1.099036 -1.592604 95 85 72 0.631452 -0.753767 0.181944 0.000000 
-0.018175 1.213032 -1.338875 119 103 81 0.974677 -0.220477 -0.037349 0.000000 
-0.038552 1.283943 -1.208475 100 89 76 0.233777 -0.666814 0.707607 0.000000 
-0.009771 0.935903 -1.886223 98 81 62 0.427813 -0.775920 0.463600 0.000000 
-0.011971 1.139194 -1.484448 90 80 65 0.998450 0.032547 0.045145 0.000000 
-0.021903 1.107519 -1.575417 98 87 71 0.807027 -0.533353 0.253459 0.000000 
-0.024412 0.940221 -1.886805 77 62 46 -0.927783 -0.321425 0.189487 0.000000 
-0.025228 1.085661 -1.606382 67 59 47 -0.961087 -0.185889 0.204346 0.000000 
-0.004867 0.804178 -2.133453 95 75 50 0.380048 -0.593928 0.709094 0.000000 
-0.023670 1.229831 -1.299602 122 102 75 -0.565618 0.555487 -0.609516 0.000000 
-0.023004 0.956320 -1.851283 82 66 49 0.686825 0.680480 -0.255378 0.000000 
-0.009120 0.840626 -2.074914 82 63 43 -0.215125 -0.932207 0.291051 0.000000 
-0.025154 0.920197 -1.934709 101 92 81 0.907052 0.403911 -0.118797 0.000000 
-0.023203 1.103678 -1.572865 66 59 48 0.979405 -0.191544 0.063848 0.000000 
-0.026989 1.063360 -1.656321 81 70 56 0.868952 0.492818 -0.045301 0.000000 
-0.019920 0.948162 -1.859639 94 80 63 0.298721 0.798169 -0.523156 0.000000 
-0.026419 1.024920 -1.715815 84 74 60 0.826038 0.490023 -0.278457 0.000000 
-0.025015 1.215804 -1.316922 104 87 64 0.724302 -0.528724 0.442537 0.000000 
-0.012103 1.121512 -1.498842 70 60 44 0.971492 -0.199378 0.128262 0.000000 
-0.030269 1.220054 -1.309336 99 82 63 -0.766300 -0.642481 -0.001376 0.000000 
-0.001561 0.958009 -1.856401 111 98 83 -0.759415 0.566752 -0.319500 0.000000 
-0.017051 1.261111 -1.268038 121 117 112 0.992997 -0.114278 0.029956 0.000000 
-0.027021 1.058401 -1.661888 76 63 48 -0.794509 -0.539637 0.278472 0.000000 
-0.030608 1.223499 -1.302640 116 98 78 -0.169630 -0.695329 0.698386 0.000000 
-0.009552 0.957470 -1.830599 93 76 59 -0.332776 0.936352 -0.111823 0.000000 
-0.011365 1.116585 -1.511768 69 59 44 -0.765075 0.368731 0.527918 0.000000 
-0.023309 1.080797 -1.606332 76 60 43 0.785083 0.547179 -0.290243 0.000000 
-0.017014 1.089471 -1.570082 70 59 44 0.574289 0.816986 0.052208 0.000000 
-0.013794 0.810050 -2.121478 87 73 54 0.523309 0.647826 -0.553597 0.000000 
0.001990 0.853959 -2.054040 100 86 66 0.488501 -0.649655 0.582508 0.000000 
-0.028575 1.200158 -1.367795 61 51 40 -0.949181 0.298841 -0.098736 0.000000 
0.000317 0.887364 -2.005614 109 97 77 0.921295 -0.310919 0.233548 0.000000 
-0.012745 1.111784 -1.507102 99 87 71 0.396709 -0.887024 0.236243 0.000000 
-0.016791 1.169338 -1.423194 93 83 68 0.519504 -0.123691 0.845468 0.000000 
-0.011638 1.129729 -1.484798 75 64 46 0.992959 -0.096239 -0.069066 0.000000 
-0.025351 0.970444 -1.823650 82 66 49 0.747540 0.640530 -0.175802 0.000000 
-0.029557 1.178812 -1.383603 118 112 100 0.053165 -0.992029 0.114247 0.000000 
-0.028871 1.187099 -1.378662 86 69 53 0.937123 0.282669 0.204691 0.000000 
-0.010734 1.066434 -1.624408 89 81 68 -0.677244 -0.165887 0.716814 0.000000 
-0.013721 1.111073 -1.513134 83 72 57 0.956670 0.163658 -0.240831 0.000000 
-0.025086 1.091500 -1.586277 90 80 68 0.895948 0.362822 -0.256197 0.000000 
-0.011017 1.091969 -1.555487 101 93 81 -0.736305 -0.310956 0.600967 0.000000 
-0.005608 0.864664 -2.020985 101 88 67 0.034542 0.942876 -0.331350 0.000000 
-0.009968 1.132181 -1.478555 123 116 108 0.967460 -0.005994 0.252954 0.000000 
-0.011398 1.095131 -1.572183 71 61 47 -0.988571 -0.147088 0.033066 0.000000 
-0.016414 1.161699 -1.436773 84 73 54 0.751589 -0.553546 0.358750 0.000000 
-0.019257 1.100068 -1.559335 69 57 43 0.602931 0.633161 -0.485368 0.000000 
-0.017577 0.910425 -1.936999 83 67 50 0.134963 0.919694 -0.368712 0.000000 
-0.001770 0.899190 -1.967133 106 93 76 -0.754790 0.519020 -0.401136 0.000000 
-0.001646 0.872870 -2.012213 104 90 70 0.321643 -0.735416 0.596414 0.000000 
-0.022922 0.930937 -1.901009 80 64 47 0.760361 0.603585 -0.239866 0.000000 
-0.035906 1.245284 -1.268481 131 120 105 0.965051 0.196657 0.173214 0.000000 
-0.028393 1.181080 -1.382208 109 99 87 -0.995685 0.047101 -0.079961 0.000000 
-0.023826 1.095928 -1.581159 66 55 42 -0.929671 -0.287250 0.230649 0.000000 
-0.025174 1.223131 -1.303110 116 95 67 -0.572731 0.565973 -0.593004 0.000000 
-0.016691 1.174480 -1.419635 93 85 69 -0.960651 0.266635 0.077822 0.000000 
-0.021005 1.059975 -1.642722 79 63 46 0.530607 0.798273 -0.284985 0.000000 
-0.009627 1.113052 -1.503279 110 99 84 0.863080 0.012118 0.504922 0.000000 
-0.011328 1.116846 -1.512327 71 61 45 -0.603271 0.475559 0.640240 0.000000 
-0.024033 1.110766 -1.556546 65 56 45 -0.908002 0.372698 -0.191386 0.000000 
-0.013730 1.097883 -1.534990 109 99 85 -0.837093 -0.537411 0.102295 0.000000 
-0.021436 1.033009 -1.693760 77 64 50 -0.508600 -0.730594 0.455586 0.000000 
-0.013356 1.203004 -1.366089 132 125 119 0.943267 -0.236162 0.233400 0.000000 
-0.009953 1.080310 -1.558777 120 114 106 0.671678 0.642118 -0.369505 0.000000 
-0.022984 1.000248 -1.761778 91 78 63 0.740748 0.540368 -0.399117 0.000000 
0.006074 0.847296 -2.069998 109 95 78 -0.696305 0.693230 -0.185989 0.000000 
-0.029739 1.192284 -1.372990 76 62 47 -0.999739 -0.015102 0.017115 0.000000 
-0.014077 1.099342 -1.535100 82 71 57 -0.763755 -0.579564 0.284225 0.000000 
-0.029089 1.210024 -1.326019 109 89 69 0.789866 0.609243 -0.070242 0.000000 
-0.020439 1.167794 -1.408461 92 78 59 -0.184375 0.583601 -0.790832 0.000000 
-0.014225 1.141956 -1.472410 88 77 58 0.872490 -0.056691 0.485331 0.000000 
-0.022720 1.058729 -1.648612 71 61 48 0.472525 0.860084 -0.192289 0.000000 
-0.013999 0.892928 -1.965213 106 94 73 0.209501 0.746445 -0.631608 0.000000 
-0.027180 1.059005 -1.666007 99 84 67 0.909478 0.375499 -0.178469 0.000000 
-0.006067 0.881173 -1.987147 95 77 59 0.194453 -0.833585 0.517034 0.000000 
-0.027032 1.020841 -1.748432 104 93 78 0.998708 -0.030327 -0.040785 0.000000 
-0.019870 1.150343 -1.444855 85 71 53 0.828569 0.294914 0.475920 0.000000 
-0.019369 1.179960 -1.421837 82 77 71 -0.682323 0.682323 0.262432 0.000000 
-0.012765 1.110828 -1.539190 75 64 48 0.962601 0.069570 -0.261838 0.000000 
-0.020705 0.879666 -2.007869 86 71 54 0.780192 0.605139 -0.158453 0.000000 
-0.011018 1.087505 -1.582093 68 59 46 0.989638 0.032950 0.139754 0.000000 
-0.022769 0.953416 -1.854031 97 87 72 -0.647869 -0.614387 0.450327 0.000000 
-0.008642 0.854002 -2.051373 85 69 50 0.442360 0.789119 -0.426156 0.000000 
-0.024819 1.257369 -1.265463 126 114 96 0.712288 -0.685067 0.152741 0.000000 
-0.021559 1.131629 -1.504692 76 64 49 0.973709 0.214043 -0.077946 0.000000 
-0.010442 0.980522 -1.787448 104 93 78 -0.163463 0.926293 -0.339501 0.000000 
-0.013915 1.121258 -1.484601 107 97 83 0.361001 -0.772185 0.522884 0.000000 
-0.011011 1.087667 -1.589420 78 71 59 0.997753 0.024335 0.062426 0.000000 
-0.003648 0.944896 -1.866755 109 95 78 0.518392 -0.723761 0.455456 0.000000 
-0.021833 1.162508 -1.438708 86 71 53 -0.964319 0.035716 0.262324 0.000000 
-0.024419 1.005007 -1.758918 86 72 57 0.750170 0.641054 -0.162158 0.000000 
-0.028601 1.202843 -1.360698 88 71 52 0.972194 -0.205535 -0.112225 0.000000 
-0.013196 1.144431 -1.471901 87 77 60 -0.978585 -0.017579 -0.205093 0.000000 
-0.024987 0.997504 -1.766908 102 92 78 -0.719930 -0.507110 0.473857 0.000000 
-0.022323 1.249208 -1.275213 139 124 109 0.718621 -0.628592 0.297416 0.000000 
-0.018161 1.184010 -1.385200 99 89 78 0.865857 -0.410786 0.285565 0.000000 
-0.026257 1.051613 -1.679583 85 74 59 -0.980885 -0.148174 0.126131 0.000000 
-0.008380 0.942744 -1.871798 98 81 63 0.388179 -0.849628 0.357000 0.000000 
-0.033069 1.234551 -1.296287 112 89 68 0.967884 0.197185 0.155944 0.000000 
-0.021007 1.088358 -1.583055 68 55 41 0.763828 0.462876 -0.449792 0.000000 
-0.012709 0.903090 -1.950260 105 93 71 -0.052937 0.897208 -0.438424 0.000000 
-0.016024 1.149549 -1.453409 87 76 58 0.956894 0.240219 -0.163243 0.000000 
-0.016327 1.125773 -1.491223 75 63 47 0.910714 0.379346 -0.163389 0.000000 
-0.011966 1.122826 -1.508509 82 70 54 0.999344 0.013270 0.033686 0.000000 
-0.024580 0.937908 -1.910272 87 72 56 -0.997545 -0.064803 0.026559 0.000000 
-0.035698 1.268487 -1.227415 94 79 56 0.530969 -0.494119 0.688417 0.000000 
-0.013369 1.115900 -1.499154 111 105 96 -0.856104 0.373094 -0.357613 0.000000 
-0.038664 1.235966 -1.283281 118 103 87 0.290544 -0.917888 0.270307 0.000000 
-0.020088 0.912233 -1.936906 84 68 51 -0.560990 -0.763525 0.319877 0.000000 
-0.027642 1.191144 -1.360202 100 83 66 0.408948 -0.604315 0.683787 0.000000 
-0.014615 1.120922 -1.487098 102 94 83 -0.175433 0.911397 -0.372261 0.000000 
-0.031659 1.227343 -1.299761 115 95 75 0.857795 0.089324 -0.506170 0.000000 
-0.027888 1.186144 -1.379534 78 63 46 0.876719 0.475296 -0.073873 0.000000 
-0.020415 0.917205 -1.914266 107 96 80 -0.533140 -0.766490 0.358127 0.000000 
-0.010153 1.107677 -1.534867 94 84 69 0.991909 0.027894 -0.123849 0.000000 
-0.024216 1.171840 -1.407929 73 63 50 0.933045 0.075652 0.351717 0.000000 
-0.022236 0.868642 -2.053559 102 97 91 0.920070 0.380296 -0.094052 0.000000 
-0.016818 0.897077 -1.964603 91 77 59 0.396603 0.729026 -0.557877 0.000000 
-0.027806 1.197771 -1.355693 86 71 54 -0.883104 0.108798 0.456388 0.000000 
-0.021455 1.211043 -1.330040 104 89 69 -0.579595 0.579595 -0.572835 0.000000 
-0.018466 1.147268 -1.445108 102 92 82 0.920694 -0.346498 0.179613 0.000000 
-0.016799 0.894107 -1.974903 90 75 56 -0.647274 -0.755887 -0.098339 0.000000 
-0.009186 0.978067 -1.791559 103 88 70 0.148571 -0.884212 0.442827 0.000000 
