ply
format ascii 1.0
comment Created by Open3D
obj_info Generated by CloudCompare!
element vertex 626
property float x
property float y
property float z
property uchar red
property uchar green
property uchar blue
property float nx
property float ny
property float nz
property float scalar_stem1
end_header
0.828270 0.261910 -1.339880 104 99 82 0.905331 0.410250 0.109864 0.000000 
0.810917 0.282529 -0.858133 107 102 89 -0.050807 0.992434 -0.111776 0.000000 
0.826261 0.297074 -0.899011 105 93 73 -0.994739 -0.070178 0.074633 0.000000 
0.798220 0.285159 -0.880053 86 80 67 0.771066 0.621345 0.139241 0.000000 
0.769996 0.308978 -0.778744 102 101 75 0.319308 -0.328303 -0.888966 0.000000 
0.823132 0.258894 -1.136721 105 98 77 -0.874782 0.484515 -0.001327 0.000000 
0.778041 0.240483 -1.710552 44 43 35 0.876778 -0.449367 0.171257 0.000000 
0.785495 0.237203 -1.574857 81 84 77 0.784692 0.613539 -0.088477 0.000000 
0.807300 0.225164 -1.576517 56 64 57 0.099319 -0.984814 0.142397 0.000000 
0.809824 0.305054 -0.874528 113 103 75 -0.233550 -0.971711 -0.035093 0.000000 
0.782136 0.316020 -0.822500 67 64 45 0.762737 -0.322758 0.560411 0.000000 
0.804212 0.276535 -1.299820 55 55 40 0.237689 0.964888 -0.111778 0.000000 
0.823460 0.269982 -1.059420 104 95 80 -0.868733 0.486094 -0.094951 0.000000 
0.815544 0.273287 -0.955025 111 108 94 0.583162 -0.805319 0.106694 0.000000 
0.769841 0.224724 -2.105063 56 54 48 -0.743473 0.649592 -0.158991 0.000000 
0.786530 0.307165 -0.765810 35 32 12 -0.850523 -0.502649 -0.154775 0.000000 
0.801358 0.279594 -0.951766 85 86 81 0.967083 0.254115 0.013248 0.000000 
0.785188 0.247199 -1.469079 70 70 67 0.966397 0.246926 -0.071446 0.000000 
0.809716 0.265535 -1.007710 102 101 92 0.200145 0.921233 -0.333574 0.000000 
0.819326 0.266187 -1.067579 112 106 91 -0.685763 0.727663 0.015363 0.000000 
0.799540 0.270205 -1.414720 65 62 47 0.261246 -0.962952 0.066889 0.000000 
0.789348 0.244793 -1.871408 65 59 50 0.105473 -0.993663 0.038858 0.000000 
0.824824 0.250035 -1.304366 72 70 58 0.637305 -0.747873 0.185817 0.000000 
0.827785 0.296776 -0.910086 131 122 101 0.994924 0.070034 -0.072257 0.000000 
0.826306 0.267754 -1.190862 105 93 68 -0.916669 -0.369195 -0.153012 0.000000 
0.819737 0.293674 -1.013564 122 110 90 0.666961 0.744935 0.015316 0.000000 
0.800852 0.225893 -1.575428 55 63 56 -0.110933 -0.991535 0.067475 0.000000 
0.793069 0.319455 -0.791350 58 51 21 -0.209878 0.729131 -0.651398 0.000000 
0.811435 0.259969 -1.062886 100 96 87 0.117559 -0.982890 0.141798 0.000000 
0.804330 0.261657 -1.051096 110 108 102 -0.757075 -0.599022 0.260788 0.000000 
0.796671 0.309378 -0.947127 121 109 94 0.491753 -0.572313 0.656230 0.000000 
0.796172 0.313348 -0.868356 100 94 77 0.256897 -0.962407 0.088189 0.000000 
0.803187 0.246642 -1.269670 74 75 67 0.880283 0.427566 -0.205646 0.000000 
0.824428 0.289211 -0.888045 108 101 88 -0.792631 0.567048 -0.224038 0.000000 
0.790312 0.316941 -0.834273 97 90 67 0.447638 -0.869994 0.206716 0.000000 
0.790016 0.237525 -1.501708 66 71 65 0.618487 0.785794 -0.001371 0.000000 
0.822093 0.289953 -1.010308 120 106 84 -0.797053 -0.597428 -0.088240 0.000000 
0.825219 0.287771 -0.970281 105 95 71 0.997059 -0.013804 0.075390 0.000000 
0.811031 0.282499 -0.824048 106 102 94 0.222418 -0.963809 -0.146978 0.000000 
0.798554 0.278885 -1.008626 86 85 81 -0.799170 -0.550884 0.240527 0.000000 
0.793500 0.286325 -1.049590 102 93 80 0.994785 0.003219 -0.101947 0.000000 
0.793471 0.301576 -0.897361 79 72 59 0.945845 0.310005 -0.096299 0.000000 
0.789986 0.226294 -1.610092 89 89 89 0.548786 0.833759 -0.060663 0.000000 
0.800271 0.319837 -0.808373 94 90 71 -0.156625 -0.951799 0.263719 0.000000 
0.776965 0.238248 -1.970187 60 58 53 -0.470062 0.881875 -0.036575 0.000000 
0.775183 0.227628 -1.753236 70 69 64 -0.738228 -0.674516 0.006925 0.000000 
0.787456 0.226701 -1.629295 101 98 91 0.640554 0.766097 0.052785 0.000000 
0.818576 0.260095 -1.106229 102 97 78 -0.611055 0.787294 -0.082341 0.000000 
0.791707 0.296148 -0.974110 90 83 71 0.980910 -0.192908 0.024552 0.000000 
0.778353 0.239476 -1.622742 98 95 90 -0.963293 -0.260656 0.064220 0.000000 
0.801226 0.277302 -1.317977 56 56 51 -0.236641 0.971538 0.010702 0.000000 
0.811321 0.260001 -1.038542 82 83 69 0.190493 -0.912361 0.362366 0.000000 
0.826181 0.295797 -0.900725 104 94 73 -0.981370 0.128324 0.142989 0.000000 
0.824423 0.291436 -0.913151 102 92 76 -0.799350 0.591840 0.103755 0.000000 
0.793488 0.256858 -1.261029 112 107 100 0.604148 0.796814 -0.009633 0.000000 
0.809116 0.235768 -1.414905 70 70 61 0.312248 -0.949387 0.034132 0.000000 
0.815538 0.273407 -1.345928 66 62 51 0.180807 0.976359 -0.118460 0.000000 
0.807482 0.307105 -0.873724 98 92 70 0.548787 0.834990 -0.040291 0.000000 
0.791670 0.251851 -1.332370 89 91 89 0.893984 0.447656 -0.019925 0.000000 
0.796171 0.281448 -1.114123 72 73 68 -0.987290 0.158732 0.007880 0.000000 
0.826091 0.273324 -0.764919 93 91 80 -0.242571 0.596254 0.765271 0.000000 
0.813058 0.296664 -0.971037 112 99 71 -0.658367 -0.750166 0.061677 0.000000 
0.803382 0.269815 -1.013309 111 106 95 -0.944620 -0.293251 0.147301 0.000000 
0.827402 0.296873 -0.873268 111 102 86 0.945056 0.303434 0.121641 0.000000 
0.791497 0.303508 -0.804809 41 38 22 0.416477 0.901665 -0.116389 0.000000 
0.794606 0.245067 -1.346936 63 67 61 -0.602883 -0.776880 0.181628 0.000000 
0.824046 0.306975 -0.841609 136 128 102 0.896855 0.441054 -0.033515 0.000000 
0.826296 0.297943 -0.838880 124 114 96 -0.989514 -0.035299 -0.140058 0.000000 
0.789512 0.256698 -1.332912 106 105 98 0.881491 0.441474 -0.167556 0.000000 
0.801922 0.319717 -0.804506 85 78 56 0.415813 0.866658 -0.275686 0.000000 
0.816186 0.255659 -1.137558 83 78 59 0.289528 -0.950550 0.112374 0.000000 
0.804663 0.261392 -1.055549 83 77 63 -0.690325 -0.721768 0.050024 0.000000 
0.815654 0.247409 -1.289412 55 54 43 -0.354002 0.929086 -0.107150 0.000000 
0.794722 0.237087 -1.454870 79 79 75 0.646551 0.762057 0.035215 0.000000 
0.767325 0.205936 -2.011063 63 64 61 0.614527 0.778202 -0.129452 0.000000 
0.792289 0.297125 -0.965358 90 89 85 -0.821454 0.559752 -0.109043 0.000000 
0.827750 0.268368 -1.210237 132 119 91 -0.915133 -0.366336 -0.168316 0.000000 
0.825266 0.294059 -0.932430 103 92 71 0.935330 -0.349277 0.056251 0.000000 
0.782022 0.249696 -1.734559 45 43 35 -0.911622 0.410558 0.019675 0.000000 
0.792678 0.256331 -1.709002 62 63 59 -0.144367 -0.987098 0.069249 0.000000 
0.825832 0.297777 -0.811356 124 113 96 -0.983689 -0.105007 0.146045 0.000000 
0.810000 0.257386 -1.082792 100 98 87 -0.191892 0.948572 -0.251773 0.000000 
0.793210 0.254397 -1.714660 67 62 52 -0.075728 -0.972052 0.222219 0.000000 
0.823799 0.258109 -1.159358 90 80 62 0.736947 -0.675881 -0.009715 0.000000 
0.803411 0.274113 -1.005253 85 81 67 -0.923961 -0.377318 0.062664 0.000000 
0.826767 0.290768 -0.781498 100 94 73 0.739555 -0.666331 -0.095190 0.000000 
0.783980 0.245647 -1.468599 124 119 115 0.877744 0.469163 -0.097214 0.000000 
0.823441 0.286064 -1.066220 117 103 82 0.882984 0.453578 -0.120859 0.000000 
0.783357 0.242552 -1.538059 69 73 69 -0.870364 -0.486338 0.077085 0.000000 
0.785590 0.255345 -1.528170 36 38 32 0.803130 -0.593495 0.052409 0.000000 
0.825091 0.281667 -1.054870 117 104 84 -0.963772 -0.261256 0.053751 0.000000 
0.818771 0.284760 -0.826235 109 103 90 -0.145818 0.989078 0.021477 0.000000 
0.825128 0.276741 -1.030185 116 108 83 0.967267 -0.230666 -0.105775 0.000000 
0.789021 0.236036 -1.545317 85 87 80 -0.691755 -0.722131 0.001381 0.000000 
0.804560 0.310596 -0.866387 96 89 69 -0.710173 -0.701565 0.058822 0.000000 
0.809739 0.270476 -1.509457 86 81 73 0.406739 0.912844 -0.035772 0.000000 
0.805254 0.272961 -0.981339 92 87 72 0.927338 0.370671 -0.051446 0.000000 
0.801107 0.286656 -0.965422 89 81 67 -0.671075 -0.728124 -0.139620 0.000000 
0.815740 0.268963 -0.972178 94 94 78 0.532436 -0.844312 0.060408 0.000000 
0.808381 0.237122 -1.372074 56 62 54 -0.110458 -0.968727 0.222185 0.000000 
0.821396 0.259607 -1.516705 108 104 91 -0.586918 -0.809589 -0.009622 0.000000 
0.795287 0.270594 -1.374067 48 47 37 -0.628533 0.777723 -0.009670 0.000000 
0.824810 0.274927 -1.104322 108 96 76 0.992727 0.041410 -0.113039 0.000000 
0.790888 0.246609 -1.393458 75 82 76 0.807575 0.572590 -0.141289 0.000000 
0.817153 0.222979 -1.665989 80 82 74 -0.116082 0.988460 -0.097322 0.000000 
0.807328 0.248500 -1.744902 98 95 83 0.257092 0.965634 -0.038133 0.000000 
0.824396 0.286206 -0.961186 104 96 73 0.956250 -0.246045 0.158267 0.000000 
0.801647 0.242656 -1.151323 63 63 55 -0.625945 0.757562 0.185182 0.000000 
0.804168 0.248740 -1.235596 62 63 58 0.840570 0.533080 -0.096270 0.000000 
0.822681 0.288599 -0.951677 101 90 69 -0.940902 0.326867 -0.088664 0.000000 
0.760788 0.217137 -2.149776 52 52 45 0.895990 -0.408318 0.174581 0.000000 
0.800629 0.279945 -1.007208 83 80 68 -0.807967 -0.523538 0.270364 0.000000 
0.790777 0.292489 -0.968998 117 112 104 0.925575 0.377759 0.024665 0.000000 
0.802831 0.321499 -0.781752 64 57 29 0.209512 0.956818 0.201506 0.000000 
0.817628 0.265309 -1.049427 98 92 81 0.510428 -0.859740 -0.017601 0.000000 
0.822674 0.311681 -0.772040 113 102 79 -0.613154 -0.719930 0.325182 0.000000 
0.793885 0.242845 -1.396714 75 79 73 -0.556497 -0.829864 0.040447 0.000000 
0.792217 0.268018 -1.243432 51 52 47 0.969273 -0.223678 -0.102361 0.000000 
0.812955 0.272965 -0.945475 112 109 96 0.613648 -0.781407 0.113311 0.000000 
0.778857 0.221444 -1.811346 76 80 72 0.604866 0.777684 -0.171303 0.000000 
0.764224 0.220460 -1.927426 67 64 59 -0.754798 -0.629254 0.185255 0.000000 
0.801162 0.316187 -0.840298 91 85 66 -0.219035 -0.975699 0.005857 0.000000 
0.779742 0.236298 -1.634070 70 72 68 -0.930982 -0.364409 0.021890 0.000000 
0.790252 0.306660 -0.829740 47 42 26 0.545176 0.803009 0.240747 0.000000 
0.811076 0.257601 -1.096989 99 97 84 0.277841 -0.959243 -0.051545 0.000000 
0.822970 0.278383 -1.086857 108 95 74 -0.988360 -0.151796 0.010120 0.000000 
0.794424 0.266365 -1.457016 39 41 36 0.616476 -0.780479 -0.103966 0.000000 
0.792716 0.299595 -0.905110 89 86 79 0.941929 0.325394 0.082995 0.000000 
0.772511 0.235384 -1.857932 52 45 33 0.945636 -0.323674 0.031733 0.000000 
0.822693 0.271421 -1.032892 104 100 80 0.775341 -0.622911 0.104063 0.000000 
0.796085 0.294419 -0.837083 53 53 41 0.769707 0.198188 -0.606855 0.000000 
0.808368 0.295251 -1.104082 126 113 96 0.363537 0.931324 -0.021838 0.000000 
0.813431 0.287419 -1.116108 118 107 81 0.581263 0.804939 -0.119196 0.000000 
0.812357 0.297086 -1.032859 122 111 93 0.433177 0.870851 0.232327 0.000000 
0.814610 0.260663 -1.043348 89 89 75 -0.626170 0.762623 0.162228 0.000000 
0.817859 0.314488 -0.807922 131 120 101 0.461343 0.885942 0.047631 0.000000 
0.804636 0.321791 -0.809764 126 113 97 0.041033 -0.998479 0.036825 0.000000 
0.824926 0.273711 -1.073190 107 96 79 0.991695 -0.117004 0.053390 0.000000 
0.813933 0.253904 -1.127001 83 76 63 0.436669 -0.886308 0.154203 0.000000 
0.806478 0.276069 -0.905101 108 106 95 0.285024 0.890887 -0.353669 0.000000 
0.809823 0.257157 -1.085497 102 94 79 -0.098919 0.985612 -0.137056 0.000000 
0.814057 0.253078 -1.669174 106 103 92 -0.180873 -0.978190 0.102125 0.000000 
0.796177 0.271821 -1.130580 112 104 92 0.899065 0.433891 0.058487 0.000000 
0.770094 0.219726 -1.907368 58 56 51 -0.881881 -0.465244 0.076383 0.000000 
0.824922 0.299854 -0.924739 113 102 81 -0.686785 -0.724220 -0.061911 0.000000 
0.793440 0.269337 -1.304949 43 42 30 -0.751144 0.650794 0.110679 0.000000 
0.795221 0.267852 -1.416301 46 45 37 -0.446042 0.875892 -0.184011 0.000000 
0.808051 0.261890 -1.037688 91 84 70 -0.232287 0.971715 -0.042566 0.000000 
0.783744 0.251068 -1.627662 35 36 30 0.790101 -0.591447 0.161030 0.000000 
0.770465 0.239635 -1.821471 78 79 72 0.866091 -0.496299 0.059778 0.000000 
0.796652 0.267399 -1.502554 58 60 56 0.266587 -0.961482 0.066963 0.000000 
0.774731 0.318287 -0.801504 71 69 49 0.922542 -0.368743 0.113776 0.000000 
0.815733 0.288179 -1.097912 95 87 65 0.214000 0.975695 -0.047153 0.000000 
0.824225 0.284345 -1.001839 109 97 77 -0.981576 0.085933 -0.170656 0.000000 
0.821715 0.287095 -1.122746 120 109 91 0.480146 0.861914 0.162985 0.000000 
0.799793 0.263528 -1.572807 78 73 58 -0.165986 0.985471 -0.035983 0.000000 
0.825550 0.273838 -1.082316 120 111 90 -0.993871 0.097263 0.052544 0.000000 
0.810527 0.264690 -1.511640 83 76 64 0.402270 0.913517 -0.060542 0.000000 
0.793088 0.271275 -1.180036 91 88 77 -0.998380 0.053317 0.019863 0.000000 
0.777880 0.245718 -1.793350 38 38 32 -0.864499 0.496208 0.080124 0.000000 
0.794101 0.304002 -0.948457 99 96 80 -0.727098 0.666125 -0.166150 0.000000 
0.763995 0.232254 -2.044992 66 62 56 0.672563 -0.731689 -0.110862 0.000000 
0.801140 0.290040 -0.768094 61 54 30 0.825078 0.559109 -0.081507 0.000000 
0.823814 0.283821 -1.040404 109 97 73 0.960830 0.270745 -0.059186 0.000000 
0.803890 0.280028 -0.874080 104 100 88 0.390329 0.920341 -0.024804 0.000000 
0.811276 0.220700 -1.778888 71 74 66 -0.158299 0.969097 -0.189186 0.000000 
0.810270 0.295351 -1.051649 109 102 90 0.502033 0.830580 -0.241037 0.000000 
0.803642 0.301270 -1.057342 123 111 96 0.207867 0.963509 0.168647 0.000000 
0.824236 0.288606 -0.994459 136 130 111 -0.844165 -0.514160 0.151743 0.000000 
0.794609 0.273945 -1.317697 63 60 46 -0.769491 0.638216 -0.023741 0.000000 
0.790495 0.269549 -1.362172 69 70 63 0.880695 -0.463598 0.097229 0.000000 
0.783060 0.246831 -1.839260 65 56 46 0.401776 -0.909864 -0.103551 0.000000 
0.826723 0.258705 -1.210555 97 90 71 -0.877954 0.478518 -0.014744 0.000000 
0.814616 0.314899 -0.835817 127 116 101 -0.543994 -0.825626 0.149709 0.000000 
0.786009 0.254212 -1.472483 39 42 36 0.957110 -0.289700 -0.003667 0.000000 
0.797617 0.280599 -1.187843 71 67 58 0.904479 -0.421729 -0.063734 0.000000 
0.804982 0.269846 -0.950649 100 103 102 -0.582015 -0.812015 0.043476 0.000000 
0.794330 0.252158 -1.314459 79 84 76 -0.721603 -0.690042 0.055949 0.000000 
0.802355 0.248109 -1.174430 116 113 110 -0.945225 -0.301667 -0.124689 0.000000 
0.796119 0.250046 -1.303972 76 76 73 -0.597997 -0.788879 0.141670 0.000000 
0.809582 0.283447 -0.821530 99 96 79 -0.267455 0.950204 0.159935 0.000000 
0.822732 0.268045 -1.079212 119 113 101 0.615967 -0.765755 0.184943 0.000000 
0.801870 0.293021 -1.092753 106 97 73 -0.394799 0.905044 -0.158205 0.000000 
0.784733 0.253456 -1.579247 41 39 30 0.769815 -0.636550 -0.046784 0.000000 
0.805034 0.266614 -1.013174 115 110 101 0.685050 0.723027 -0.089100 0.000000 
0.805537 0.285675 -1.175706 105 94 66 0.251464 -0.960252 0.121172 0.000000 
0.772797 0.314565 -0.792251 76 77 50 0.921286 -0.362678 0.140347 0.000000 
0.821665 0.280047 -0.963293 102 95 83 0.840450 -0.540389 0.040286 0.000000 
0.802211 0.282609 -0.823246 94 89 78 0.039165 0.992563 0.115258 0.000000 
0.824064 0.289106 -0.989426 106 95 71 -0.835606 -0.546304 0.057580 0.000000 
0.823037 0.280470 -0.992917 102 92 75 0.894181 -0.433755 -0.110895 0.000000 
0.795487 0.281637 -1.088505 81 82 76 0.972997 0.145886 -0.178869 0.000000 
0.816807 0.224160 -1.583058 80 81 73 0.364171 -0.918161 0.156073 0.000000 
0.803356 0.245520 -1.246983 86 88 87 -0.730093 -0.681516 0.050006 0.000000 
0.800834 0.312015 -0.879122 91 85 67 0.441113 0.889317 -0.120561 0.000000 
0.821182 0.284453 -0.816603 108 105 95 0.243203 -0.966511 -0.081908 0.000000 
0.810316 0.282386 -0.836413 104 100 82 0.272568 -0.954646 0.119825 0.000000 
0.825700 0.300332 -0.911330 125 116 93 0.829732 0.551722 -0.084550 0.000000 
0.777113 0.243220 -1.810726 41 38 31 -0.841848 0.537498 -0.048863 0.000000 
0.776433 0.221248 -1.824803 58 61 56 0.638295 0.765665 0.079606 0.000000 
0.810162 0.256305 -1.107508 98 93 84 -0.353646 0.934912 -0.029578 0.000000 
0.812023 0.281631 -1.212156 90 80 54 -0.067061 -0.997394 -0.026611 0.000000 
0.816379 0.301037 -0.907742 106 98 80 -0.074173 -0.995247 -0.063102 0.000000 
0.791603 0.295914 -0.931816 78 74 65 0.956127 0.147198 -0.253287 0.000000 
0.765534 0.212602 -2.030143 54 54 46 0.958160 0.281515 0.051758 0.000000 
0.802728 0.308520 -0.919290 114 105 78 0.332059 0.941912 -0.050390 0.000000 
0.787783 0.226665 -1.627650 99 98 91 -0.582683 -0.812434 -0.020761 0.000000 
0.820082 0.268749 -1.040430 100 93 81 0.759391 -0.647420 0.064598 0.000000 
0.807101 0.297682 -1.012299 96 86 62 -0.410769 -0.887792 -0.207593 0.000000 
0.814771 0.305250 -0.875466 106 98 73 -0.005113 0.999020 -0.043969 0.000000 
0.803971 0.232180 -1.470638 66 68 60 0.389840 0.892953 -0.225077 0.000000 
0.822238 0.286188 -1.065568 105 95 72 -0.827245 -0.552940 0.099616 0.000000 
0.822736 0.290740 -0.926274 114 106 86 -0.828123 0.557255 -0.060663 0.000000 
0.824422 0.301991 -0.891272 127 119 97 0.710173 0.701565 0.058822 0.000000 
0.781990 0.233538 -1.658069 62 70 64 0.885855 0.463637 -0.017370 0.000000 
0.796278 0.270004 -1.411200 63 61 47 -0.381411 0.922077 -0.065576 0.000000 
0.817312 0.290384 -1.049182 132 121 94 0.596016 0.800852 0.058321 0.000000 
0.786333 0.255544 -1.527218 34 39 33 0.817758 -0.575560 0.001361 0.000000 
0.790604 0.221259 -1.700224 83 84 77 -0.249596 -0.967945 0.028003 0.000000 
0.819994 0.258321 -1.613477 117 119 120 -0.285137 -0.940815 0.183204 0.000000 
0.797389 0.281034 -0.819680 103 99 87 0.076759 0.986062 0.147614 0.000000 
0.783842 0.251889 -1.759068 52 51 47 -0.428406 0.903235 0.025200 0.000000 
0.811749 0.276211 -1.288848 58 54 34 -0.014931 0.984325 -0.175731 0.000000 
0.806430 0.247650 -1.196852 102 102 96 -0.076217 -0.995239 0.060753 0.000000 
0.827748 0.294500 -0.778552 106 98 77 0.940329 -0.261741 -0.217425 0.000000 
0.792616 0.273357 -1.163377 119 111 100 0.992496 -0.062243 -0.105248 0.000000 
0.822243 0.306486 -0.852095 110 103 79 -0.474225 -0.880322 -0.012023 0.000000 
0.809231 0.281745 -0.811623 101 93 76 -0.082711 0.989038 0.122319 0.000000 
0.800390 0.247949 -1.303824 61 62 58 -0.710981 -0.696261 0.098625 0.000000 
0.796803 0.278213 -1.207545 59 57 50 0.946029 -0.321317 -0.042245 0.000000 
0.794494 0.285364 -0.920264 112 107 98 0.766074 0.640066 0.058708 0.000000 
0.823644 0.275447 -1.015490 100 91 76 -0.862632 0.503777 0.045547 0.000000 
0.786481 0.223261 -1.706064 69 74 66 0.647141 0.760924 -0.046936 0.000000 
0.798398 0.280057 -1.240850 61 56 37 -0.645230 0.760707 -0.070730 0.000000 
0.799173 0.268991 -1.460630 67 62 46 0.162049 -0.983096 -0.085226 0.000000 
0.812661 0.300676 -0.905576 96 88 65 0.527085 0.849116 0.034405 0.000000 
0.819864 0.273882 -0.994517 99 92 80 0.860057 -0.510112 -0.009422 0.000000 
0.792875 0.250199 -1.802936 60 59 53 0.077961 0.993153 -0.087000 0.000000 
0.800021 0.277801 -1.038563 80 76 67 0.878175 0.473077 0.070753 0.000000 
0.762045 0.201889 -2.130647 56 54 47 0.780940 0.623911 -0.029443 0.000000 
0.778732 0.246277 -1.608612 76 77 70 -0.911637 0.387901 -0.135835 0.000000 
0.791957 0.307191 -0.900384 104 103 89 0.905004 -0.384159 0.182727 0.000000 
0.829953 0.251326 -1.358710 93 91 78 0.861942 -0.505655 0.036999 0.000000 
0.792618 0.309114 -0.892080 107 104 88 0.707099 -0.688852 0.159668 0.000000 
0.778220 0.243909 -1.674716 43 41 31 0.919790 -0.392358 -0.006432 0.000000 
0.819720 0.288029 -1.133609 122 111 93 -0.331393 -0.934173 0.132284 0.000000 
0.822366 0.308490 -0.840247 139 133 112 -0.822366 -0.556521 0.118316 0.000000 
0.792107 0.263768 -1.236930 83 82 78 -0.978109 -0.205605 0.032089 0.000000 
0.819465 0.245149 -1.342220 58 57 45 -0.419505 0.906931 -0.038621 0.000000 
0.824356 0.289438 -0.930564 121 114 103 0.878791 -0.476518 0.025648 0.000000 
0.833048 0.303235 -0.762952 97 85 58 -0.670310 -0.732733 0.117416 0.000000 
0.822993 0.292436 -1.003526 133 125 107 0.528750 0.848460 0.023227 0.000000 
0.822480 0.269470 -1.051788 102 94 81 -0.786907 0.608794 -0.100736 0.000000 
0.801126 0.295683 -1.065506 102 95 73 0.282025 -0.944171 0.170305 0.000000 
0.804918 0.238291 -1.365919 74 74 67 0.066604 0.987374 0.143724 0.000000 
0.794408 0.317506 -0.820493 108 99 71 -0.205142 -0.977725 -0.044388 0.000000 
0.789142 0.237681 -1.503778 86 88 82 0.701544 0.712614 -0.004151 0.000000 
0.798318 0.304323 -0.963413 105 98 77 -0.100119 0.993320 -0.057372 0.000000 
0.810917 0.282529 -0.858133 107 102 89 0.050807 -0.992434 0.111776 0.000000 
0.815521 0.283891 -1.169698 101 92 77 -0.132985 -0.987388 0.085911 0.000000 
0.823094 0.267843 -1.084732 102 94 79 -0.835590 0.535186 -0.123953 0.000000 
0.824029 0.283020 -0.994312 106 94 74 0.919130 -0.389326 -0.060205 0.000000 
0.793510 0.233842 -1.506996 69 75 68 -0.496231 -0.865259 0.071290 0.000000 
0.827952 0.307414 -0.885956 131 133 133 0.971135 0.192191 0.141279 0.000000 
0.797454 0.281547 -1.041106 91 83 70 -0.839887 -0.476193 -0.260442 0.000000 
0.824848 0.288618 -0.815872 117 111 99 0.903522 -0.422373 0.072446 0.000000 
0.824956 0.284174 -1.009045 111 100 73 0.955312 0.210356 0.207676 0.000000 
0.824996 0.275197 -1.153718 119 102 70 0.997827 -0.065688 0.005213 0.000000 
0.792456 0.272706 -1.234603 60 60 51 -0.921190 0.388485 -0.022088 0.000000 
0.826899 0.251640 -1.204837 103 97 84 -0.571165 0.810257 0.131353 0.000000 
0.787130 0.238459 -1.510129 95 94 89 0.763656 0.637115 -0.104469 0.000000 
0.800650 0.286509 -0.958542 88 80 67 -0.573858 -0.818815 0.015138 0.000000 
0.779729 0.245135 -1.577915 84 84 77 0.999476 0.029546 0.013245 0.000000 
0.806251 0.276036 -1.307806 67 63 48 -0.087032 -0.996038 -0.018266 0.000000 
0.788787 0.258604 -1.602895 43 43 37 0.897384 -0.431354 -0.092928 0.000000 
0.770688 0.234642 -1.997921 57 52 45 0.412341 -0.906047 0.095156 0.000000 
0.823215 0.280881 -1.158257 112 100 82 0.992317 0.053059 -0.111763 0.000000 
0.822706 0.312698 -0.802303 138 133 123 0.828982 0.556862 -0.051899 0.000000 
0.762287 0.217519 -1.984813 65 62 57 0.862895 0.502778 -0.051247 0.000000 
0.803526 0.280740 -1.266204 79 73 51 -0.005204 -0.998099 0.061405 0.000000 
0.819043 0.256136 -1.159887 86 79 55 -0.400748 0.916180 -0.003866 0.000000 
0.821389 0.284584 -1.144156 116 104 84 0.670031 0.704552 -0.233805 0.000000 
0.776773 0.241286 -1.786429 46 41 30 0.857795 -0.506170 -0.089324 0.000000 
0.818448 0.292957 -0.975366 98 89 65 -0.451931 -0.840189 0.299735 0.000000 
0.791883 0.307464 -0.775761 24 20 8 -0.950504 -0.247429 -0.187938 0.000000 
0.800300 0.267476 -1.502386 74 70 60 0.024191 -0.998152 0.055745 0.000000 
0.822030 0.284593 -1.119284 104 96 73 0.774168 0.632906 0.009694 0.000000 
0.822256 0.263730 -1.106530 120 114 100 0.880688 -0.469976 0.059264 0.000000 
0.806922 0.280433 -0.856648 100 96 86 -0.100722 -0.981736 0.161398 0.000000 
0.799169 0.282422 -0.867427 104 100 90 -0.567524 -0.822841 -0.029139 0.000000 
0.803419 0.267490 -1.487346 66 62 54 0.051061 0.982031 -0.181682 0.000000 
0.805121 0.305471 -0.938740 94 86 64 -0.319091 -0.947102 0.034325 0.000000 
0.801680 0.284769 -0.847219 98 92 79 -0.544228 -0.838848 -0.012276 0.000000 
0.823952 0.274291 -1.206568 99 90 65 -0.969424 -0.219229 0.110248 0.000000 
0.779426 0.246213 -1.788128 42 39 34 0.816855 -0.566411 -0.109205 0.000000 
0.806436 0.280320 -0.863946 106 101 91 -0.042109 -0.948097 0.315182 0.000000 
0.812619 0.279694 -0.871318 108 105 96 -0.544329 0.836888 0.057668 0.000000 
0.806710 0.279446 -0.787270 106 101 81 -0.163553 0.956054 0.243335 0.000000 
0.820738 0.262808 -1.103850 100 92 79 0.871655 -0.488510 0.039683 0.000000 
0.805837 0.298964 -1.061768 122 110 95 0.593820 0.783109 -0.184710 0.000000 
0.791378 0.290162 -0.966928 104 100 89 0.791712 0.610191 -0.029323 0.000000 
0.806445 0.322116 -0.793874 122 111 95 -0.292118 -0.953565 0.073351 0.000000 
0.793930 0.273171 -1.221291 58 58 50 0.917155 -0.397912 -0.022179 0.000000 
0.795405 0.274920 -1.296562 51 49 35 0.790652 -0.597084 0.135498 0.000000 
0.768361 0.316924 -0.773712 97 92 72 0.665248 -0.684577 0.297992 0.000000 
0.795575 0.298080 -1.010444 69 70 66 -0.738287 0.672851 -0.046943 0.000000 
0.809793 0.266300 -0.997844 104 101 94 -0.047052 0.998550 0.026140 0.000000 
0.791529 0.251528 -1.786183 59 59 56 0.036345 -0.994521 0.098020 0.000000 
0.814768 0.225133 -1.672647 72 78 69 -0.178475 0.983363 -0.033829 0.000000 
0.818843 0.290767 -1.031208 129 117 89 0.600218 0.799835 -0.001367 0.000000 
0.812357 0.242700 -1.324428 55 55 43 0.479548 -0.873312 0.085784 0.000000 
0.811340 0.254358 -1.125609 93 89 81 0.250414 -0.942167 0.222744 0.000000 
0.794560 0.221579 -1.700365 74 75 69 0.148277 0.985747 -0.079477 0.000000 
0.779182 0.245235 -1.666754 38 38 33 0.894028 -0.447678 -0.017269 0.000000 
0.793499 0.289884 -0.958255 86 80 67 -0.630000 -0.775924 0.032272 0.000000 
0.792137 0.291620 -0.947674 78 74 61 -0.796525 -0.604591 0.004113 0.000000 
0.794633 0.288244 -1.041990 96 89 76 0.987798 -0.121267 0.097720 0.000000 
0.784616 0.250016 -1.810597 60 58 54 -0.233995 0.967599 -0.094863 0.000000 
0.791616 0.272636 -1.193916 102 94 80 -0.875837 0.464524 0.130872 0.000000 
0.823749 0.289399 -0.845677 117 110 97 -0.792861 0.599409 0.109916 0.000000 
0.824005 0.270307 -1.069153 120 113 99 0.805498 -0.588798 -0.067006 0.000000 
0.820994 0.298117 -0.936379 119 109 86 -0.214047 -0.974830 0.062379 0.000000 
0.797805 0.286932 -0.846441 83 77 64 0.396187 0.910535 0.118161 0.000000 
0.819391 0.313215 -0.770914 123 111 79 -0.545299 -0.827502 0.133753 0.000000 
0.774089 0.208883 -1.936271 74 75 72 0.531117 0.831636 -0.162162 0.000000 
0.793717 0.305597 -0.924995 81 81 77 0.652145 -0.735006 0.185670 0.000000 
0.806962 0.309730 -0.858452 114 104 75 0.529355 0.822255 -0.208996 0.000000 
0.822465 0.277270 -1.258979 118 113 106 0.456981 0.888043 -0.050473 0.000000 
0.804996 0.232237 -1.467764 52 57 50 -0.437995 -0.898622 0.025295 0.000000 
0.781155 0.246260 -1.567688 58 63 57 0.994724 -0.067949 -0.076860 0.000000 
0.768115 0.198442 -2.147957 54 53 47 0.696042 0.716051 -0.052882 0.000000 
0.802461 0.248786 -1.255749 85 84 76 0.922848 0.383538 -0.035343 0.000000 
0.809576 0.304955 -0.894484 105 97 71 0.601334 0.775767 -0.191264 0.000000 
0.817873 0.282662 -1.183641 95 86 68 -0.131020 0.991045 0.025756 0.000000 
0.825644 0.274030 -1.129739 122 111 87 0.971535 0.228379 -0.062958 0.000000 
0.791507 0.265837 -1.393172 35 36 31 0.760742 -0.648248 0.032342 0.000000 
0.795311 0.266618 -1.458817 57 55 41 -0.599574 0.781723 0.171524 0.000000 
0.810321 0.297912 -0.989347 96 88 66 0.485522 0.866493 -0.116010 0.000000 
0.824296 0.261561 -1.145661 95 84 65 0.942146 -0.268988 0.200016 0.000000 
0.809489 0.264151 -1.513307 85 79 62 -0.348105 -0.937205 -0.021677 0.000000 
0.829208 0.259982 -1.237191 102 97 85 -0.971948 0.214456 0.096568 0.000000 
0.804455 0.296449 -0.876197 81 75 64 0.514058 -0.242364 -0.822802 0.000000 
0.824311 0.274147 -1.181730 109 95 66 -0.964400 -0.255245 0.069155 0.000000 
0.796255 0.247465 -1.310282 86 88 87 0.527585 0.849317 -0.017723 0.000000 
0.769887 0.308074 -0.793847 99 95 75 0.937027 -0.198511 0.287355 0.000000 
0.787765 0.232089 -1.582052 91 93 85 -0.816339 -0.562432 0.131382 0.000000 
0.823779 0.282091 -1.157106 131 119 93 0.902743 0.427897 0.044265 0.000000 
0.820366 0.272141 -1.009553 104 98 80 0.735344 -0.675141 0.058770 0.000000 
0.812746 0.280937 -0.790894 103 99 88 0.353444 -0.924498 -0.142764 0.000000 
0.782936 0.244352 -1.549475 56 60 55 -0.896756 -0.433825 0.087319 0.000000 
0.808163 0.259864 -1.057466 91 83 69 0.195753 -0.962998 0.185243 0.000000 
0.823926 0.287976 -0.801432 115 110 92 0.912172 -0.375934 -0.163141 0.000000 
0.797801 0.260449 -1.112592 119 119 109 0.820411 0.553369 0.143906 0.000000 
0.823434 0.258280 -1.173503 89 78 56 0.709301 -0.648732 0.275751 0.000000 
0.797348 0.294114 -1.046496 74 71 63 0.898075 -0.437593 0.044432 0.000000 
0.821710 0.285171 -1.079356 113 100 79 0.974743 0.212114 0.069887 0.000000 
0.825087 0.290464 -0.803507 116 109 95 0.824221 -0.564822 0.040444 0.000000 
0.773599 0.233883 -1.750760 41 43 39 -0.991547 0.051111 0.119258 0.000000 
0.808975 0.253227 -1.145396 92 89 79 -0.654145 0.750730 -0.092195 0.000000 
0.817260 0.278598 -1.251426 91 82 57 -0.324454 -0.945801 -0.013780 0.000000 
0.820612 0.309945 -0.837742 109 101 78 0.773429 0.609322 0.174743 0.000000 
0.820938 0.288154 -1.082311 116 104 85 -0.738304 -0.672614 0.049982 0.000000 
0.782113 0.205604 -2.009334 71 73 63 0.121040 0.988297 -0.092836 0.000000 
0.828335 0.298262 -0.780314 105 97 73 0.980948 0.113609 -0.157587 0.000000 
0.799477 0.307155 -0.955760 108 103 94 -0.061563 0.988486 -0.138225 0.000000 
0.809927 0.277449 -0.887979 101 92 78 0.227785 -0.973694 -0.005901 0.000000 
0.797462 0.314197 -0.867633 111 102 77 0.155488 -0.980673 0.118758 0.000000 
0.799149 0.290521 -1.105660 93 86 73 -0.870638 0.481478 -0.100841 0.000000 
0.787679 0.256456 -1.548045 34 37 32 -0.743270 0.652811 0.146242 0.000000 
0.781171 0.244423 -1.567769 70 75 67 -0.986647 -0.115168 0.115168 0.000000 
0.823762 0.259532 -1.146582 92 82 64 -0.897612 0.431464 -0.090177 0.000000 
0.820693 0.285741 -0.896127 121 115 101 0.702610 -0.693505 -0.159339 0.000000 
0.762258 0.221482 -1.951856 53 52 47 -0.991628 -0.108656 0.069769 0.000000 
0.794047 0.290314 -0.839622 52 53 44 0.981423 0.135664 -0.135664 0.000000 
0.792692 0.253858 -1.307085 103 102 96 -0.796020 -0.586934 0.147854 0.000000 
0.819767 0.287830 -0.935848 103 93 75 -0.921449 0.384269 0.057175 0.000000 
0.798704 0.288674 -0.796220 36 30 16 0.958999 -0.099653 -0.265310 0.000000 
0.799425 0.316877 -0.851362 94 89 72 -0.232028 -0.945962 0.226537 0.000000 
0.770571 0.230667 -1.818632 59 62 54 0.993104 0.018738 0.115733 0.000000 
0.822081 0.287597 -1.104611 118 107 89 0.326641 0.945148 0.001242 0.000000 
0.813574 0.305817 -0.930023 121 107 88 0.451354 -0.759916 -0.467767 0.000000 
0.808128 0.268977 -0.972316 95 87 72 0.505909 0.838148 -0.203874 0.000000 
0.791067 0.262502 -1.551871 69 66 52 -0.636967 0.768654 -0.058687 0.000000 
0.762837 0.203156 -2.126127 55 53 46 0.688495 0.678999 -0.254822 0.000000 
0.810726 0.293065 -1.080377 96 87 62 -0.439755 -0.894674 0.078577 0.000000 
0.804200 0.250664 -1.230935 61 62 56 -0.904835 -0.425417 0.017122 0.000000 
0.809506 0.291171 -1.138271 104 105 104 0.772289 0.631350 -0.070470 0.000000 
0.824060 0.290070 -0.969150 108 95 73 0.954738 0.283701 -0.089385 0.000000 
0.826215 0.296911 -0.924130 106 94 72 0.996014 0.071222 0.053691 0.000000 
0.823680 0.289636 -0.868269 114 106 93 0.677359 -0.732241 0.070769 0.000000 
0.811340 0.294108 -1.037826 98 90 67 0.501741 0.805635 -0.314973 0.000000 
0.823427 0.285136 -1.109614 117 106 87 -0.948097 -0.316874 -0.026511 0.000000 
0.811691 0.289023 -1.117097 93 85 64 -0.518533 -0.834162 0.187874 0.000000 
0.815060 0.271026 -1.413967 77 73 58 -0.132008 -0.974342 0.182296 0.000000 
0.816390 0.282272 -0.859187 106 104 95 0.330793 -0.939241 0.091666 0.000000 
0.822988 0.305629 -0.860008 101 94 74 -0.619590 -0.761035 0.192181 0.000000 
0.813141 0.271702 -0.954688 112 109 93 0.515711 -0.844826 0.142518 0.000000 
0.801857 0.278769 -1.308569 60 61 58 0.066432 -0.996477 -0.051185 0.000000 
0.802477 0.254321 -1.190622 101 95 84 0.916234 0.397611 0.049203 0.000000 
0.792689 0.231394 -1.556714 68 75 68 0.541902 0.826957 -0.149951 0.000000 
0.832239 0.299147 -0.767863 102 91 67 0.839751 0.266563 -0.473034 0.000000 
0.807659 0.260224 -1.051881 89 82 67 0.402092 -0.895635 0.190159 0.000000 
0.757384 0.227152 -2.055288 57 55 48 0.866681 -0.496234 -0.051144 0.000000 
0.795459 0.278011 -1.219361 64 60 49 0.848543 -0.523809 0.074830 0.000000 
0.806739 0.247247 -1.177248 109 112 112 -0.169747 -0.984535 0.043315 0.000000 
0.788748 0.256692 -1.542747 33 36 31 0.802763 -0.596220 -0.009639 0.000000 
0.821443 0.246635 -1.317238 64 62 52 -0.538618 0.842523 -0.006784 0.000000 
0.781798 0.234607 -1.618835 66 67 63 0.850770 0.483358 -0.206293 0.000000 
0.797137 0.282082 -1.134965 69 70 65 -0.898320 0.439324 0.003934 0.000000 
0.776506 0.245297 -1.685938 51 54 48 0.919766 -0.381764 0.091026 0.000000 
0.826827 0.262697 -1.161998 108 99 75 0.988491 -0.140220 0.056783 0.000000 
0.822010 0.291066 -0.998053 120 107 85 0.710961 0.702480 -0.032509 0.000000 
0.814246 0.253126 -1.162375 80 74 61 -0.422174 0.886712 -0.188444 0.000000 
0.822303 0.282746 -0.959564 104 96 79 -0.906763 0.421044 -0.022438 0.000000 
0.805857 0.290854 -1.122799 112 104 78 0.058205 -0.997954 0.026457 0.000000 
0.824353 0.302161 -0.824485 127 116 97 -0.910831 -0.396316 -0.115418 0.000000 
0.779913 0.236680 -1.629142 86 86 81 0.943818 0.329768 -0.021479 0.000000 
0.805777 0.247683 -1.166050 114 116 115 0.909238 -0.300151 -0.288438 0.000000 
0.810317 0.282012 -0.766789 113 106 80 -0.358685 -0.663322 0.656771 0.000000 
0.811614 0.255160 -1.147533 83 80 66 -0.259794 0.948045 -0.183624 0.000000 
0.781160 0.249985 -1.593428 42 43 37 0.954509 -0.289051 0.073226 0.000000 
0.779310 0.247025 -1.788612 40 39 34 0.820759 -0.564001 -0.090875 0.000000 
0.814522 0.256130 -1.144163 84 80 63 -0.171625 0.983590 -0.055630 0.000000 
0.820912 0.287682 -0.940473 102 91 73 -0.941788 0.266127 -0.205456 0.000000 
0.821520 0.282186 -1.147835 105 96 71 -0.707925 -0.705088 -0.041142 0.000000 
0.809684 0.244929 -1.248174 70 68 59 -0.403592 0.914894 0.009084 0.000000 
0.797159 0.278759 -1.222546 60 55 43 0.805568 -0.584944 0.094346 0.000000 
0.815405 0.282861 -1.184724 97 84 58 -0.053040 0.996943 -0.057370 0.000000 
0.822340 0.284807 -1.076647 112 99 78 0.977877 0.190177 -0.087113 0.000000 
0.797833 0.283435 -0.844253 94 95 90 0.340513 0.927030 0.157053 0.000000 
0.824427 0.268889 -1.114922 116 107 82 0.925907 -0.320887 0.199317 0.000000 
0.814562 0.268413 -0.953174 93 92 78 0.454887 -0.876347 0.158411 0.000000 
0.791940 0.302958 -0.858182 46 47 39 0.945107 0.259253 -0.198898 0.000000 
0.819266 0.260671 -1.097229 116 110 97 0.740750 -0.671779 0.001379 0.000000 
0.826448 0.261725 -1.158257 115 107 90 0.964116 -0.240707 0.111987 0.000000 
0.775157 0.241167 -1.866696 51 46 36 0.801869 -0.594660 -0.058189 0.000000 
0.795432 0.270777 -1.320718 40 38 30 0.759006 -0.645808 0.082721 0.000000 
0.776796 0.214124 -1.922320 53 55 47 -0.808017 -0.582524 0.088174 0.000000 
0.814666 0.308616 -0.888823 121 109 94 0.746075 0.649613 -0.146201 0.000000 
0.772623 0.235081 -1.860120 43 41 33 0.943866 -0.329785 -0.018953 0.000000 
0.792819 0.317351 -0.834028 102 94 71 0.113381 -0.975576 0.188138 0.000000 
0.779972 0.246057 -1.749236 48 42 30 0.866300 -0.497193 -0.048204 0.000000 
0.824037 0.265304 -1.095996 105 100 80 0.846434 -0.519436 -0.117199 0.000000 
0.778903 0.243380 -1.660371 39 41 36 -0.962797 0.267098 0.040997 0.000000 
0.822303 0.282746 -0.959564 104 96 79 -0.906763 0.421044 -0.022438 0.000000 
0.784869 0.304288 -0.808955 65 61 38 -0.031249 -0.996742 -0.074352 0.000000 
0.814534 0.283364 -0.791177 102 97 72 -0.316776 0.947783 0.036894 0.000000 
0.794099 0.292945 -1.029927 90 88 50 0.949908 -0.281899 0.134938 0.000000 
0.804869 0.273016 -0.947311 90 83 69 -0.729246 -0.676210 0.104599 0.000000 
0.827736 0.295530 -0.786460 102 95 74 -0.990422 0.086676 0.107479 0.000000 
0.799320 0.282125 -0.777599 86 78 55 0.925867 0.339345 -0.166181 0.000000 
0.777906 0.241990 -1.661861 47 53 48 -0.997787 0.056438 0.035141 0.000000 
0.807566 0.273861 -0.921848 110 108 95 0.283948 0.873103 -0.396313 0.000000 
0.797391 0.281644 -1.078598 92 83 70 -0.853028 -0.514095 0.089717 0.000000 
0.803981 0.267042 -1.007796 99 100 96 0.626131 0.768907 -0.129391 0.000000 
0.804396 0.283846 -1.201288 96 86 61 -0.373804 -0.925925 0.054155 0.000000 
0.796335 0.301312 -0.985245 103 96 74 0.459135 -0.886935 -0.050410 0.000000 
0.820668 0.250989 -1.240780 63 61 47 0.409129 -0.907797 0.092295 0.000000 
0.825952 0.292775 -1.064722 133 123 109 -0.739218 -0.670052 0.067726 0.000000 
0.823193 0.270227 -1.107927 105 94 73 -0.919277 0.393609 0.001282 0.000000 
0.789616 0.231758 -1.563368 83 84 83 0.763393 0.643533 -0.055649 0.000000 
0.797316 0.287193 -1.109848 94 90 66 -0.873052 0.486239 0.036774 0.000000 
0.804117 0.296963 -1.106418 125 112 96 0.039320 -0.997869 -0.052072 0.000000 
0.824726 0.309656 -0.780924 121 110 91 0.817824 0.575097 0.020687 0.000000 
0.786858 0.256228 -1.624595 55 51 38 0.824221 -0.564822 0.040444 0.000000 
0.805435 0.270112 -0.999867 102 94 80 0.915327 0.380341 -0.132353 0.000000 
0.820236 0.290677 -0.996084 124 113 85 0.609364 0.790022 -0.067388 0.000000 
0.809898 0.280986 -1.206562 91 80 50 -0.152576 -0.987732 -0.033269 0.000000 
0.759097 0.225323 -2.024552 45 42 35 0.981696 -0.182060 0.055927 0.000000 
0.816449 0.285284 -1.151428 98 91 69 -0.226133 -0.967134 0.116260 0.000000 
0.792591 0.315544 -0.847642 99 92 70 -0.471944 0.869829 -0.143761 0.000000 
0.798744 0.317352 -0.819076 88 82 62 -0.005014 -0.999721 0.023063 0.000000 
0.806338 0.310938 -0.900265 124 111 95 0.414808 0.792493 -0.447089 0.000000 
0.825584 0.272344 -1.072793 105 98 77 -0.945536 0.312541 -0.090993 0.000000 
0.775752 0.240461 -1.689492 45 46 38 0.987575 -0.147382 -0.054543 0.000000 
0.797744 0.225368 -1.589908 73 76 69 -0.357376 -0.931303 0.070412 0.000000 
0.787589 0.256696 -1.624364 60 55 41 0.787400 -0.612423 0.070278 0.000000 
0.805659 0.302218 -0.965038 94 85 62 0.375823 0.924178 -0.068210 0.000000 
0.817006 0.265023 -1.038458 110 100 84 0.481191 -0.856608 0.186219 0.000000 
0.768112 0.231228 -1.920682 43 41 32 0.942840 -0.287900 -0.167828 0.000000 
0.783447 0.250807 -1.520517 39 43 37 0.992505 -0.085267 -0.087541 0.000000 
0.823614 0.280576 -0.999830 117 110 92 -0.938618 0.284220 -0.195488 0.000000 
0.822596 0.281143 -0.998097 103 92 74 0.935683 -0.352001 0.024320 0.000000 
0.823409 0.281450 -1.096805 111 98 78 0.995137 -0.085045 0.049702 0.000000 
0.803692 0.278500 -0.780430 113 107 91 0.451417 0.890560 0.055916 0.000000 
0.795556 0.237227 -1.452883 70 74 67 -0.611597 -0.791072 -0.012425 0.000000 
0.825203 0.246777 -1.324335 64 65 56 0.597845 -0.799494 0.058222 0.000000 
0.821465 0.260273 -1.124646 94 86 72 0.778512 -0.601785 0.178250 0.000000 
0.789848 0.295178 -0.967137 131 126 111 -0.992669 -0.100738 0.066782 0.000000 
0.799318 0.272320 -1.469977 81 79 70 0.290376 -0.956893 0.006126 0.000000 
0.766222 0.233884 -2.082237 67 63 55 0.668260 -0.714775 0.206215 0.000000 
0.826436 0.295001 -0.834016 120 112 97 0.997432 -0.054757 -0.046167 0.000000 
0.782343 0.213244 -1.838754 84 84 82 -0.580095 -0.810406 0.082048 0.000000 
0.810747 0.278983 -0.781534 112 106 91 -0.319916 0.919578 0.228101 0.000000 
0.801551 0.273678 -1.436770 81 79 71 -0.197001 -0.980397 -0.003456 0.000000 
0.826808 0.297992 -0.906612 107 95 76 0.965612 0.255930 0.045746 0.000000 
0.823548 0.286650 -0.770276 99 90 69 -0.742066 0.548768 0.384957 0.000000 
0.789429 0.259270 -1.634210 69 64 49 0.676929 -0.719331 -0.155981 0.000000 
0.809576 0.304955 -0.894484 105 97 71 0.601334 0.775767 -0.191264 0.000000 
0.784176 0.247782 -1.498002 59 61 55 -0.996525 -0.055544 0.062079 0.000000 
0.811618 0.287150 -1.143029 90 84 63 -0.459347 -0.887892 0.025445 0.000000 
0.769465 0.224024 -2.131725 54 52 47 -0.678906 0.734214 0.004148 0.000000 
0.828448 0.297992 -0.777890 103 95 71 -0.983108 -0.050749 0.175850 0.000000 
0.790799 0.246775 -1.893101 100 95 87 0.105182 -0.982903 0.151123 0.000000 
0.816138 0.252941 -1.166291 79 73 59 0.335213 -0.940925 0.047888 0.000000 
0.797532 0.283665 -0.792017 60 54 36 -0.935777 -0.346145 0.067123 0.000000 
0.805829 0.281386 -0.838735 96 91 80 -0.238716 -0.970617 0.030294 0.000000 
0.786656 0.301073 -0.940229 84 80 60 0.960739 -0.234614 0.148109 0.000000 
0.810436 0.290193 -1.147107 101 102 101 0.411640 0.831165 -0.373788 0.000000 
0.825219 0.270217 -1.155341 105 91 68 0.970633 0.172642 0.167527 0.000000 
0.803566 0.277476 -0.935018 86 80 66 -0.951902 -0.299316 -0.065516 0.000000 
0.800362 0.240802 -1.361552 73 74 67 -0.590031 -0.798969 -0.116240 0.000000 
0.821822 0.286062 -0.836050 117 112 96 -0.619936 0.779638 0.088562 0.000000 
0.798724 0.283729 -0.782740 78 72 53 -0.883832 -0.397948 0.245923 0.000000 
0.779937 0.248072 -1.599291 50 48 37 0.984316 -0.176380 -0.003414 0.000000 
0.790442 0.263047 -1.285450 50 52 46 -0.971952 0.229199 0.052704 0.000000 
0.826070 0.305064 -0.786070 124 113 94 0.978107 0.199490 -0.059243 0.000000 
0.780031 0.245805 -1.569550 57 58 50 -0.996331 0.051178 0.068600 0.000000 
0.789751 0.231304 -1.575253 72 75 70 0.818789 0.572453 -0.043389 0.000000 
0.822995 0.274438 -0.758682 90 83 59 0.718317 0.648854 -0.251016 0.000000 
0.821319 0.259242 -1.120642 92 89 71 0.788097 -0.583039 0.197407 0.000000 
0.790709 0.290830 -0.936072 113 108 99 -0.817121 -0.575730 0.029133 0.000000 
0.774759 0.305981 -0.801212 63 64 41 0.582768 0.555741 0.592903 0.000000 
0.792395 0.293943 -1.029777 109 106 89 -0.930480 0.364101 -0.040456 0.000000 
0.800959 0.273311 -1.380328 60 59 51 0.190477 -0.979078 0.071581 0.000000 
0.771258 0.302565 -0.790675 52 54 37 0.711888 0.634754 0.300504 0.000000 
0.809857 0.264017 -1.009203 100 95 84 -0.398785 -0.899786 0.177078 0.000000 
0.826330 0.293434 -0.841427 118 110 96 0.953249 -0.281910 0.108830 0.000000 
0.829258 0.264273 -1.228497 113 103 77 0.989885 0.046919 0.133892 0.000000 
0.797535 0.282329 -1.189290 97 90 67 -0.934512 0.354470 0.032225 0.000000 
0.781479 0.218960 -1.762159 102 102 102 0.632887 0.774144 -0.012464 0.000000 
0.824303 0.257399 -1.183245 99 93 73 -0.791096 0.607985 -0.067236 0.000000 
0.805250 0.280886 -1.241349 82 74 48 0.178573 0.981552 -0.068313 0.000000 
0.780728 0.234602 -1.642808 61 68 62 0.861960 0.494802 -0.110434 0.000000 
0.815076 0.274303 -1.320715 70 67 52 -0.153969 -0.986110 0.062293 0.000000 
0.806141 0.248862 -1.197673 72 69 59 -0.499009 -0.866127 -0.028554 0.000000 
0.798211 0.263708 -1.153010 104 98 88 -0.845625 -0.533141 -0.026040 0.000000 
0.818017 0.246532 -1.310771 60 59 49 0.158173 -0.977686 0.138246 0.000000 
0.761594 0.201081 -2.126502 75 74 70 -0.690550 -0.684258 0.234378 0.000000 
0.779204 0.241820 -1.636246 48 52 47 0.995003 0.080796 -0.058660 0.000000 
0.820973 0.276897 -1.234798 101 95 72 0.608872 0.783681 -0.122959 0.000000 
0.817781 0.313724 -0.817832 140 135 113 -0.493884 -0.868743 0.036939 0.000000 
0.793454 0.309245 -0.907288 93 90 73 -0.591473 0.805795 -0.029226 0.000000 
0.771378 0.220934 -1.851485 69 66 59 0.949983 0.285659 -0.126221 0.000000 
0.823750 0.273485 -1.017032 101 96 78 0.806249 -0.580088 0.116018 0.000000 
0.799648 0.321743 -0.787066 69 61 32 -0.159885 -0.965809 0.204081 0.000000 
0.826798 0.266652 -1.179119 114 104 79 0.990231 0.079727 0.114391 0.000000 
0.788899 0.294613 -0.949825 107 104 91 -0.946682 -0.299583 0.118502 0.000000 
0.806219 0.295262 -1.083897 87 85 81 -0.364851 -0.911412 0.190295 0.000000 
0.793541 0.232016 -1.550711 93 94 88 -0.536423 -0.838431 0.096355 0.000000 
0.770573 0.305030 -0.790441 50 53 35 -0.760612 -0.519561 -0.389264 0.000000 
0.773797 0.243141 -1.865290 69 68 59 0.831264 -0.553709 -0.049063 0.000000 
0.770054 0.305286 -0.789105 50 52 35 0.800420 0.439667 0.407457 0.000000 
0.793153 0.288811 -0.993374 117 112 103 -0.865392 -0.500875 0.014851 0.000000 
0.797686 0.264874 -1.107160 121 115 104 0.948730 0.289556 -0.126764 0.000000 
0.790934 0.266885 -1.535727 79 79 70 0.154393 -0.971015 -0.182464 0.000000 
0.778139 0.322207 -0.776940 55 54 41 -0.896318 -0.141074 -0.420372 0.000000 
0.778397 0.241176 -1.662676 44 49 44 -0.985063 0.043133 0.166703 0.000000 
0.817453 0.292439 -1.070852 119 107 87 -0.349809 -0.929649 -0.115696 0.000000 
0.823166 0.278673 -1.192375 104 95 69 0.955135 0.253729 0.152769 0.000000 
0.796441 0.232538 -1.526091 76 82 75 0.432431 0.896842 -0.093160 0.000000 
0.824178 0.289229 -0.981343 110 97 74 0.868152 0.469944 0.159576 0.000000 
0.794364 0.284781 -0.810888 61 63 51 0.952783 0.253271 -0.167507 0.000000 
0.812494 0.232729 -1.504391 61 60 51 -0.464590 0.885501 0.006618 0.000000 
0.817702 0.252966 -1.118800 110 103 93 -0.234657 0.950837 -0.202104 0.000000 
0.790283 0.299637 -0.916303 117 116 103 0.957508 0.281022 -0.064851 0.000000 
0.825563 0.306465 -0.782100 101 95 72 0.927081 0.372663 0.040535 0.000000 
0.790777 0.292489 -0.968998 117 112 104 -0.925575 -0.377759 -0.024665 0.000000 
0.820327 0.229584 -1.589184 57 62 56 0.551210 -0.833095 -0.046050 0.000000 
0.782375 0.241606 -1.927106 60 56 49 0.134367 -0.980013 0.146694 0.000000 
0.801020 0.258568 -1.217171 83 81 76 -0.878142 -0.474335 0.062231 0.000000 
0.822930 0.281164 -0.993119 105 94 75 -0.910831 0.396316 0.115418 0.000000 
0.801280 0.253543 -1.248789 59 63 54 0.780563 0.624729 0.020871 0.000000 
0.798033 0.283962 -1.171995 103 97 73 -0.803152 0.590511 -0.079022 0.000000 
0.758527 0.229373 -2.063015 57 54 47 0.753854 -0.657029 0.004150 0.000000 
0.802208 0.308925 -0.909005 117 108 81 0.467854 0.883724 0.011996 0.000000 
0.828069 0.264707 -1.162402 136 126 103 0.998002 0.019981 0.059943 0.000000 
0.802005 0.309613 -0.946019 124 108 89 -0.818325 -0.103199 0.565415 0.000000 
0.794431 0.233509 -1.501545 90 93 86 0.489555 0.861443 -0.135100 0.000000 
0.802823 0.275463 -1.336357 77 72 54 0.013270 0.999344 0.033686 0.000000 
0.821148 0.262329 -1.457868 104 97 79 0.406977 0.913437 0.001292 0.000000 
0.798275 0.311965 -0.894352 112 105 81 0.338052 -0.927905 0.157201 0.000000 
0.798619 0.263608 -1.156873 107 102 92 -0.806851 -0.586930 -0.067119 0.000000 
0.822220 0.284861 -0.796481 107 100 88 0.572765 -0.817221 -0.063956 0.000000 
0.799191 0.288451 -1.163136 93 89 71 -0.701979 0.704922 -0.101544 0.000000 
0.755649 0.219850 -2.063454 69 63 56 0.960579 0.241778 -0.137226 0.000000 
0.824577 0.256531 -1.175437 89 84 64 -0.662947 0.730004 0.166118 0.000000 
0.773402 0.229551 -1.780835 61 64 55 0.834141 0.551056 0.023361 0.000000 
0.824024 0.273461 -1.224135 126 117 91 0.816280 0.563307 0.127957 0.000000 
0.793834 0.297265 -0.917809 80 78 72 -0.870160 -0.491593 0.034044 0.000000 
0.810163 0.274944 -0.911027 106 104 95 -0.209123 0.977855 -0.008178 0.000000 
0.817925 0.265426 -1.471839 93 85 76 -0.400462 -0.916268 0.009072 0.000000 
0.798819 0.283518 -0.863736 99 92 81 -0.502226 -0.864264 0.028582 0.000000 
0.795680 0.276616 -1.276848 61 59 42 0.803009 -0.545176 0.240747 0.000000 
0.824155 0.272192 -1.153358 107 93 68 0.990629 0.114170 0.074960 0.000000 
0.790403 0.263229 -1.500442 36 39 34 0.803260 -0.595161 0.023584 0.000000 
0.794632 0.297363 -1.017319 102 97 77 -0.843574 0.535051 -0.045862 0.000000 
0.794074 0.274245 -1.190301 85 83 57 0.857838 -0.513619 0.017618 0.000000 
0.824972 0.303642 -0.841537 127 117 99 -0.929535 -0.333857 -0.156539 0.000000 
0.808048 0.302455 -0.942888 106 96 70 -0.587850 -0.777079 0.224903 0.000000 
0.806358 0.234156 -1.384371 83 81 74 -0.143547 -0.985847 0.086603 0.000000 
0.813290 0.293096 -1.038643 122 109 80 -0.332472 -0.934993 0.123490 0.000000 
0.804100 0.268917 -1.422852 50 45 29 -0.001065 -0.995500 0.094759 0.000000 
0.788859 0.216163 -1.748855 67 67 62 0.364697 0.930561 -0.032446 0.000000 
0.797887 0.275697 -1.028265 111 104 91 0.812004 0.545923 0.206442 0.000000 
0.793616 0.305374 -0.963540 92 87 73 0.377077 -0.871705 0.312959 0.000000 
0.784530 0.221623 -1.738485 85 87 79 -0.726005 -0.678689 0.110897 0.000000 
0.809180 0.275078 -0.915427 114 110 96 -0.106311 0.994066 -0.023016 0.000000 
0.794225 0.291657 -0.927202 74 70 60 -0.836495 -0.482179 0.260346 0.000000 
0.826247 0.301035 -0.798134 125 113 95 -0.933685 -0.356121 0.037555 0.000000 
0.825782 0.288898 -0.967939 125 117 101 -0.995886 -0.089168 0.016115 0.000000 
0.812778 0.273040 -0.940752 117 112 99 0.662672 -0.742016 0.101384 0.000000 
0.819747 0.238381 -1.471483 58 59 49 -0.393010 0.917911 -0.054622 0.000000 
0.802602 0.265970 -1.541600 69 68 63 0.129698 0.983035 -0.129698 0.000000 
0.825488 0.274605 -1.199518 121 109 81 0.966221 0.253618 -0.045775 0.000000 
0.828963 0.292927 -0.772622 100 90 70 0.729753 -0.524562 -0.438514 0.000000 
0.811432 0.290327 -1.101727 96 88 65 -0.516930 -0.854119 0.057127 0.000000 
0.793605 0.306656 -0.916227 94 90 79 -0.623185 0.778622 0.073401 0.000000 
0.798946 0.277733 -1.285903 59 55 44 0.638573 -0.769349 0.018086 0.000000 
0.786636 0.234162 -1.578919 80 80 78 0.800939 0.594615 -0.070208 0.000000 
0.816268 0.293340 -1.053830 120 108 89 0.217764 0.974465 0.054745 0.000000 
0.821296 0.292696 -0.985174 120 106 83 0.717172 0.677583 0.162925 0.000000 
0.793575 0.293188 -0.903455 92 83 68 0.965190 0.033198 0.259433 0.000000 
0.823078 0.286913 -0.840672 116 111 100 -0.648210 0.734844 0.199568 0.000000 
0.773034 0.229653 -1.829526 41 44 38 -0.994948 -0.025119 -0.097201 0.000000 
0.824595 0.284215 -0.974906 116 106 83 -0.862612 0.471995 -0.181992 0.000000 
