ply
format ascii 1.0
comment Created by Open3D
obj_info Generated by CloudCompare!
element vertex 610
property float x
property float y
property float z
property uchar red
property uchar green
property uchar blue
property float nx
property float ny
property float nz
property float scalar_leaf4
end_header
0.064313 -0.032529 -0.683189 132 106 91 -0.668926 0.494569 0.554923 0.000000 
0.066921 -0.032700 -0.678858 135 107 93 -0.676751 0.522257 0.518898 0.000000 
0.117502 -0.038879 -0.618171 143 116 94 -0.647425 0.417747 0.637439 0.000000 
0.064106 -0.033101 -0.682857 129 107 92 0.692704 -0.539140 -0.479050 0.000000 
0.082339 -0.035411 -0.662374 128 92 73 -0.153782 -0.976455 -0.151282 0.000000 
0.107644 -0.033927 -0.628245 131 123 114 0.767668 0.205432 -0.607029 0.000000 
0.082263 -0.035076 -0.663541 137 102 82 -0.048098 -0.984252 -0.170103 0.000000 
0.077556 -0.034377 -0.667312 117 87 64 -0.185125 -0.967050 -0.174768 0.000000 
0.091941 -0.037380 -0.652930 121 90 71 -0.003177 0.996489 0.083659 0.000000 
0.117025 -0.042571 -0.619141 158 122 95 -0.703189 -0.502755 0.502755 0.000000 
0.074494 -0.032561 -0.674032 131 95 77 -0.126597 -0.991493 0.030249 0.000000 
0.086190 -0.038285 -0.652970 98 87 74 0.770552 0.611864 -0.178524 0.000000 
0.085544 -0.036531 -0.658905 148 119 91 0.462835 0.805557 -0.369948 0.000000 
0.078520 -0.034665 -0.666056 122 93 70 0.095537 0.991050 0.093235 0.000000 
0.107113 -0.039436 -0.630839 130 95 70 -0.851642 -0.012186 0.523983 0.000000 
0.092221 -0.034536 -0.646467 122 91 74 -0.730414 0.317642 0.604648 0.000000 
0.067089 -0.034213 -0.678259 132 107 94 -0.776413 0.249393 0.578780 0.000000 
0.117365 -0.042942 -0.618369 124 93 58 0.809767 0.328027 -0.486494 0.000000 
0.073338 -0.034429 -0.668595 139 106 88 -0.516538 0.690389 0.506508 0.000000 
0.084701 -0.033502 -0.654092 145 135 124 -0.505392 -0.851110 0.142096 0.000000 
0.086839 -0.034443 -0.651683 138 110 93 -0.131331 0.990122 -0.049106 0.000000 
0.073338 -0.034429 -0.668595 139 106 88 -0.516538 0.690389 0.506508 0.000000 
0.096071 -0.036948 -0.647563 136 110 82 0.257656 -0.535611 -0.804198 0.000000 
0.108232 -0.035602 -0.628883 118 93 75 -0.802438 -0.261222 0.536523 0.000000 
0.085944 -0.035056 -0.661090 145 109 90 0.097948 -0.987741 -0.121550 0.000000 
0.084379 -0.033710 -0.658098 145 133 118 0.142764 -0.924498 0.353444 0.000000 
0.082295 -0.035048 -0.659788 152 126 108 -0.174545 -0.972099 0.156708 0.000000 
0.078974 -0.034523 -0.664375 134 100 79 0.222038 0.974829 0.020185 0.000000 
0.074858 -0.033946 -0.677399 105 79 64 -0.060451 -0.950488 0.304825 0.000000 
0.085863 -0.035406 -0.652704 117 96 79 -0.131015 -0.970531 0.202247 0.000000 
0.099552 -0.039210 -0.641497 126 93 65 -0.636848 -0.276127 0.719846 0.000000 
0.098386 -0.038426 -0.642887 118 89 62 -0.667067 -0.556169 0.495679 0.000000 
0.079441 -0.034760 -0.663858 130 93 75 -0.206063 -0.977291 -0.049407 0.000000 
0.066847 -0.031856 -0.680437 131 107 93 0.500875 -0.710544 -0.494219 0.000000 
0.099996 -0.033726 -0.638325 115 94 76 -0.352415 -0.874172 0.334107 0.000000 
0.087282 -0.038570 -0.655953 80 66 51 -0.392491 -0.917598 -0.062959 0.000000 
0.106800 -0.034868 -0.632206 98 78 62 0.257725 0.899827 0.351978 0.000000 
0.073250 -0.033543 -0.669724 140 112 96 -0.379658 0.833358 0.401713 0.000000 
0.083345 -0.035337 -0.661905 130 99 79 -0.125512 0.992091 0.001091 0.000000 
0.083412 -0.035073 -0.664567 129 102 77 -0.137314 0.950532 0.278627 0.000000 
0.085802 -0.035216 -0.666856 93 79 63 -0.097263 -0.993871 0.052544 0.000000 
0.067124 -0.033214 -0.678485 132 108 94 0.718944 -0.353766 -0.598305 0.000000 
0.094681 -0.035067 -0.642429 114 85 66 0.840806 0.136466 -0.523853 0.000000 
0.090393 -0.034552 -0.648460 135 111 93 -0.303631 -0.899044 0.315480 0.000000 
0.090064 -0.035433 -0.656850 144 114 93 -0.074558 -0.985825 -0.150300 0.000000 
0.121621 -0.042541 -0.615484 127 113 99 -0.310551 -0.359027 0.880146 0.000000 
0.077412 -0.034531 -0.664440 128 97 81 -0.060146 -0.996241 -0.062333 0.000000 
0.084373 -0.034682 -0.665096 115 94 73 0.057878 -0.983931 -0.168910 0.000000 
0.117452 -0.041682 -0.617079 144 105 66 -0.725816 -0.275970 0.630104 0.000000 
0.096289 -0.032841 -0.642740 133 119 105 -0.280935 0.939680 0.195132 0.000000 
0.080976 -0.034323 -0.667144 116 87 65 -0.031582 0.948714 0.314554 0.000000 
0.096635 -0.040189 -0.647478 121 97 75 -0.851527 0.225360 0.473407 0.000000 
0.105784 -0.041255 -0.634436 151 125 102 -0.475927 -0.835585 0.274394 0.000000 
0.078851 -0.034758 -0.662359 132 105 88 -0.206037 -0.977172 -0.051811 0.000000 
0.110400 -0.039631 -0.626657 132 102 74 -0.806693 0.069961 0.586815 0.000000 
0.076039 -0.033478 -0.669114 125 92 73 0.109711 0.873412 0.474463 0.000000 
0.064171 -0.032224 -0.684360 126 100 83 0.633198 -0.531886 -0.562279 0.000000 
0.107137 -0.038668 -0.631559 135 104 75 -0.861722 0.147266 0.485539 0.000000 
0.064683 -0.033508 -0.681847 137 105 87 -0.782614 0.321688 0.532946 0.000000 
0.097144 -0.033786 -0.639389 119 92 79 0.725540 -0.136696 -0.674467 0.000000 
0.121035 -0.042967 -0.615766 136 113 93 -0.317678 -0.588591 0.743398 0.000000 
0.097477 -0.036583 -0.648451 102 85 70 0.246168 0.812819 0.527945 0.000000 
0.088748 -0.034720 -0.651111 131 101 83 0.257571 0.902233 -0.345880 0.000000 
0.108967 -0.041428 -0.627890 125 97 76 -0.827658 -0.238009 0.508265 0.000000 
0.085218 -0.034812 -0.663538 136 107 90 -0.259126 0.948319 0.183152 0.000000 
0.118857 -0.042231 -0.616504 161 128 98 0.654696 0.315224 -0.687027 0.000000 
0.063274 -0.034660 -0.683336 119 99 85 0.826006 -0.191778 -0.530033 0.000000 
0.083407 -0.035040 -0.664176 137 105 84 -0.070062 0.959209 0.273878 0.000000 
0.105840 -0.040658 -0.633189 130 95 65 0.787542 0.296319 -0.540346 0.000000 
0.111615 -0.037114 -0.625258 127 101 82 -0.695800 0.189764 0.692714 0.000000 
0.068413 -0.034235 -0.677056 141 108 90 -0.640168 0.589761 0.492308 0.000000 
0.083720 -0.033970 -0.654207 135 107 92 0.567041 0.765106 -0.305084 0.000000 
0.073576 -0.032486 -0.672598 134 97 78 -0.159497 0.975820 0.149450 0.000000 
0.102417 -0.034707 -0.635029 140 114 88 -0.651029 -0.526543 0.546730 0.000000 
0.072400 -0.035794 -0.682394 93 68 51 -0.347683 -0.926693 0.142675 0.000000 
0.072868 -0.032808 -0.673303 136 96 77 0.418305 -0.908283 -0.006516 0.000000 
0.079477 -0.035085 -0.663238 122 90 72 -0.211129 -0.974158 -0.080254 0.000000 
0.072868 -0.032808 -0.673303 136 96 77 0.418305 -0.908283 -0.006516 0.000000 
0.100668 -0.037955 -0.640585 131 96 65 0.613409 0.489047 -0.620131 0.000000 
0.095170 -0.040362 -0.650400 120 97 76 -0.883131 0.303435 0.357781 0.000000 
0.090734 -0.036138 -0.651081 117 90 73 0.720620 0.651541 -0.237067 0.000000 
0.093794 -0.033943 -0.644389 127 97 81 -0.792794 0.361823 0.490471 0.000000 
0.085830 -0.035051 -0.668448 92 77 64 0.300369 0.950519 -0.079318 0.000000 
0.107204 -0.040096 -0.631335 133 102 75 -0.828101 0.052020 0.558160 0.000000 
0.085171 -0.034334 -0.666889 112 92 77 -0.174658 -0.984330 0.024290 0.000000 
0.105311 -0.034222 -0.632270 116 93 78 0.204346 -0.961087 -0.185889 0.000000 
0.084125 -0.034811 -0.655616 156 133 110 -0.326770 -0.916970 0.228883 0.000000 
0.088649 -0.034802 -0.649424 131 107 91 -0.409647 -0.860718 0.302249 0.000000 
0.088633 -0.038735 -0.660214 92 71 50 -0.744080 0.215923 0.632235 0.000000 
0.073944 -0.032571 -0.674024 128 96 77 0.078297 -0.992892 0.089644 0.000000 
0.102263 -0.034042 -0.634606 116 97 83 0.214009 0.954293 0.208625 0.000000 
0.108341 -0.041601 -0.634436 159 132 112 -0.478724 -0.835055 0.271122 0.000000 
0.097820 -0.037188 -0.648437 109 95 79 0.828381 -0.225087 -0.512953 0.000000 
0.093060 -0.036934 -0.654158 131 105 82 0.208021 -0.511700 -0.833601 0.000000 
0.089877 -0.037710 -0.652867 124 103 76 -0.497488 -0.329010 0.802657 0.000000 
0.069483 -0.034026 -0.675861 136 103 85 -0.580942 0.712600 0.393329 0.000000 
0.109313 -0.041205 -0.628714 144 120 100 -0.651947 -0.438522 0.618599 0.000000 
0.097160 -0.036231 -0.640161 126 103 79 -0.638504 -0.537422 0.550899 0.000000 
0.069713 -0.032642 -0.677657 146 116 92 -0.222664 0.812341 0.539001 0.000000 
0.074542 -0.035094 -0.666319 121 102 89 -0.644775 0.550500 0.530298 0.000000 
0.098470 -0.037654 -0.642160 129 97 66 0.518392 0.455456 -0.723761 0.000000 
0.094177 -0.039602 -0.652660 107 83 59 0.162356 0.757157 0.632735 0.000000 
0.065840 -0.034667 -0.680425 134 104 86 0.806469 0.052258 -0.588962 0.000000 
0.111056 -0.036554 -0.626111 129 101 81 0.540326 -0.043059 -0.840353 0.000000 
0.065197 -0.032199 -0.682270 134 106 90 -0.659141 0.588698 0.467940 0.000000 
0.097581 -0.040106 -0.646528 126 103 81 0.767362 0.440129 -0.466307 0.000000 
0.098455 -0.037462 -0.641417 130 100 70 0.389793 0.583867 -0.712153 0.000000 
0.098178 -0.035243 -0.640180 125 100 76 0.635270 0.283231 -0.718479 0.000000 
0.117970 -0.041501 -0.617088 162 124 86 0.701266 0.244261 -0.669748 0.000000 
0.112499 -0.039880 -0.624331 132 104 79 -0.748935 -0.015341 0.662466 0.000000 
0.094893 -0.035291 -0.642620 121 89 69 0.840806 0.136466 -0.523853 0.000000 
0.107218 -0.036613 -0.630669 125 98 72 0.823324 0.185814 -0.536294 0.000000 
0.065053 -0.033717 -0.681509 136 107 90 -0.779849 0.252627 0.572726 0.000000 
0.097917 -0.033449 -0.640580 119 91 74 -0.826321 0.211526 0.521967 0.000000 
0.111796 -0.042573 -0.626654 133 120 106 -0.655195 -0.517082 0.550768 0.000000 
0.094253 -0.036137 -0.652366 120 98 84 0.226693 -0.966968 0.116548 0.000000 
0.075893 -0.034065 -0.667255 130 94 77 -0.214846 0.912734 0.347502 0.000000 
0.071323 -0.032768 -0.677786 123 96 81 -0.433898 -0.889277 -0.144633 0.000000 
0.101581 -0.034892 -0.639793 104 76 58 -0.855072 -0.329349 0.400477 0.000000 
0.101017 -0.034704 -0.636433 135 110 86 0.607332 -0.482837 -0.630885 0.000000 
0.081508 -0.035021 -0.665484 130 89 68 0.036921 -0.992389 -0.117476 0.000000 
0.075736 -0.033024 -0.673739 123 88 70 0.335949 0.939874 -0.061438 0.000000 
0.078278 -0.034756 -0.664769 126 93 76 -0.165986 -0.985471 -0.035983 0.000000 
0.104789 -0.035960 -0.634215 131 104 79 -0.914309 -0.308634 0.262266 0.000000 
0.103157 -0.038209 -0.637026 136 102 69 -0.745145 -0.035348 0.665965 0.000000 
0.066842 -0.035807 -0.678176 116 95 83 -0.836802 0.001352 0.547504 0.000000 
0.085642 -0.034645 -0.663513 116 97 78 -0.267741 0.943273 0.196344 0.000000 
0.090692 -0.035818 -0.654357 140 105 85 -0.289843 -0.928913 -0.230461 0.000000 
0.086541 -0.038282 -0.660908 97 68 40 0.305695 0.245417 0.919957 0.000000 
0.073272 -0.033242 -0.670888 134 98 79 -0.295360 0.906652 0.301238 0.000000 
0.092752 -0.035836 -0.655572 107 91 76 0.399521 0.916701 -0.006465 0.000000 
0.077078 -0.035471 -0.663853 133 106 87 -0.215721 0.963555 0.158196 0.000000 
0.084181 -0.034939 -0.658350 139 103 85 -0.192047 -0.981186 0.019787 0.000000 
0.076367 -0.034291 -0.666300 127 103 83 0.012996 -0.974666 -0.223287 0.000000 
0.073963 -0.036283 -0.667645 119 99 86 0.715605 -0.297499 -0.631984 0.000000 
0.120333 -0.041454 -0.614974 151 127 104 0.413898 0.382182 -0.826211 0.000000 
0.070353 -0.036503 -0.673382 112 89 75 0.717158 0.092395 -0.690759 0.000000 
0.083464 -0.035364 -0.663196 129 96 74 0.071684 -0.978058 -0.195612 0.000000 
0.121560 -0.042773 -0.615109 149 127 108 -0.265013 -0.541003 0.798175 0.000000 
0.105061 -0.035626 -0.632584 117 93 71 0.802966 0.173900 -0.570091 0.000000 
0.087545 -0.034084 -0.650628 145 125 104 0.161209 0.920993 -0.354659 0.000000 
0.083153 -0.034586 -0.657138 140 110 95 0.073848 -0.949658 0.304461 0.000000 
0.074140 -0.033408 -0.669672 134 98 80 0.183998 -0.914287 -0.360865 0.000000 
0.084994 -0.035112 -0.658234 130 99 82 0.072805 0.996445 -0.042379 0.000000 
0.113707 -0.040915 -0.622138 139 112 88 -0.824068 0.015083 0.566290 0.000000 
0.079579 -0.035079 -0.660137 127 103 87 -0.139297 -0.988895 0.051805 0.000000 
0.096956 -0.039222 -0.645303 116 90 64 -0.791421 -0.441836 0.422415 0.000000 
0.074211 -0.033188 -0.671368 133 94 73 0.065121 -0.956389 -0.284746 0.000000 
0.075973 -0.033750 -0.667275 150 121 94 -0.021037 -0.956552 -0.290802 0.000000 
0.096225 -0.037417 -0.642125 137 106 73 -0.645484 -0.678167 0.351340 0.000000 
0.118643 -0.042987 -0.617268 145 115 94 -0.739225 -0.288984 0.608304 0.000000 
0.088621 -0.034988 -0.650286 128 101 85 0.290662 0.942945 -0.162389 0.000000 
0.102913 -0.041061 -0.638389 143 115 90 -0.651091 -0.192403 0.734209 0.000000 
0.094646 -0.040153 -0.652323 126 101 79 0.089837 -0.845609 -0.526188 0.000000 
0.114845 -0.040164 -0.620898 130 88 65 0.725419 -0.357004 -0.588486 0.000000 
0.083314 -0.035140 -0.659258 140 103 84 -0.007839 -0.988815 0.148938 0.000000 
0.110580 -0.038486 -0.626605 135 103 76 -0.807122 0.029274 0.589659 0.000000 
0.074649 -0.032444 -0.673018 131 95 76 -0.193062 -0.979702 -0.053962 0.000000 
0.081713 -0.035976 -0.657586 123 99 86 -0.286326 0.939205 -0.189501 0.000000 
0.082750 -0.035306 -0.661060 138 110 90 0.122317 0.986847 -0.105691 0.000000 
0.069148 -0.034401 -0.675174 128 103 85 0.703424 -0.574325 -0.418744 0.000000 
0.078005 -0.034437 -0.663153 130 105 89 -0.010702 -0.971538 -0.236641 0.000000 
0.109720 -0.043465 -0.627191 108 93 78 -0.631386 -0.601079 0.489955 0.000000 
0.087190 -0.034730 -0.662872 106 91 72 0.017806 0.998181 0.057607 0.000000 
0.066122 -0.033663 -0.680165 133 103 85 -0.757267 0.323165 0.567548 0.000000 
0.113350 -0.036144 -0.626092 101 85 76 -0.691228 0.189357 0.697386 0.000000 
0.081553 -0.034971 -0.665513 126 87 66 0.036921 -0.992389 -0.117476 0.000000 
0.121560 -0.042773 -0.615109 149 127 108 0.265013 0.541003 -0.798175 0.000000 
0.104997 -0.034103 -0.632950 142 126 111 -0.758805 -0.316035 0.569505 0.000000 
0.074842 -0.034037 -0.667538 153 127 104 0.255711 -0.849818 -0.460892 0.000000 
0.104786 -0.034505 -0.632167 118 98 83 -0.875568 0.033937 0.481902 0.000000 
0.104301 -0.036099 -0.634830 131 105 80 0.900365 0.297165 -0.317863 0.000000 
0.076503 -0.034281 -0.667074 121 90 70 0.047042 0.975811 0.213496 0.000000 
0.121496 -0.037407 -0.614425 123 107 95 -0.328184 0.580384 0.745285 0.000000 
0.085398 -0.035121 -0.659265 141 103 83 -0.178489 -0.983438 -0.031498 0.000000 
0.081380 -0.035076 -0.661984 138 105 84 -0.037221 -0.991433 -0.125198 0.000000 
0.112734 -0.036409 -0.624760 127 101 81 0.681905 -0.394614 -0.615861 0.000000 
0.069603 -0.032541 -0.679545 121 94 79 -0.381136 -0.911044 0.157272 0.000000 
0.106910 -0.035694 -0.630304 126 101 78 -0.663282 -0.616736 0.423902 0.000000 
0.118658 -0.037662 -0.617526 126 106 85 0.628932 -0.504157 -0.591837 0.000000 
0.081000 -0.033995 -0.668587 128 92 75 -0.101478 0.962116 0.253053 0.000000 
0.074495 -0.034724 -0.667013 132 107 93 0.488605 -0.646437 -0.585990 0.000000 
0.094730 -0.034905 -0.649344 111 91 73 -0.280935 -0.939680 0.195132 0.000000 
0.121593 -0.040527 -0.614146 157 134 116 -0.232626 -0.100423 0.967368 0.000000 
0.112146 -0.038549 -0.624783 130 92 67 0.698541 -0.107809 -0.707402 0.000000 
0.081553 -0.034971 -0.665513 126 87 66 0.036921 -0.992389 -0.117476 0.000000 
0.090257 -0.037579 -0.652202 125 104 77 0.555430 0.535172 -0.636466 0.000000 
0.074766 -0.033092 -0.671511 131 96 77 -0.142123 0.974736 0.172308 0.000000 
0.084663 -0.034331 -0.654504 137 109 95 -0.461681 -0.865466 0.194470 0.000000 
0.113128 -0.041792 -0.622499 126 89 67 -0.842198 -0.126986 0.524002 0.000000 
0.118499 -0.041707 -0.616312 147 103 74 0.647831 0.272184 -0.711499 0.000000 
0.071613 -0.034252 -0.673181 148 112 89 -0.625055 0.584620 0.517229 0.000000 
0.097312 -0.037800 -0.644208 129 98 66 0.664590 0.661324 -0.347808 0.000000 
0.110251 -0.036978 -0.627745 128 99 74 0.812326 0.103176 -0.574005 0.000000 
0.070343 -0.031518 -0.678756 102 75 45 0.353743 0.935342 -0.001259 0.000000 
0.108351 -0.036200 -0.631947 95 77 62 0.968737 0.232447 0.086696 0.000000 
0.097259 -0.033887 -0.642494 114 90 70 -0.512531 0.837183 0.190884 0.000000 
0.102812 -0.035454 -0.635522 124 101 77 -0.517863 -0.843545 0.142302 0.000000 
0.088763 -0.034663 -0.649969 135 103 87 -0.363360 -0.882014 0.300035 0.000000 
0.074830 -0.032688 -0.672266 136 97 77 0.192066 0.968064 0.161129 0.000000 
0.118427 -0.037226 -0.618394 119 99 79 0.589819 -0.420350 -0.689507 0.000000 
0.078968 -0.034746 -0.661372 132 102 86 0.308962 0.947744 0.079522 0.000000 
0.069030 -0.032111 -0.679944 125 94 76 0.205929 0.954272 -0.216697 0.000000 
0.099241 -0.039656 -0.643063 122 99 77 0.713393 0.629654 -0.307580 0.000000 
0.111107 -0.039964 -0.625732 133 106 83 -0.760658 0.067582 0.645625 0.000000 
0.081147 -0.034725 -0.659916 143 108 87 -0.007866 -0.987696 0.156189 0.000000 
0.080223 -0.033423 -0.673368 104 83 66 0.118166 0.992816 0.018774 0.000000 
0.117008 -0.038421 -0.619017 137 113 94 -0.709336 0.350591 0.611497 0.000000 
0.091115 -0.035170 -0.654233 139 116 96 0.226632 0.968566 0.102554 0.000000 
0.083013 -0.034348 -0.657521 141 110 92 0.042008 -0.948354 0.314421 0.000000 
0.085174 -0.034514 -0.665185 135 110 91 0.021028 -0.992741 -0.118421 0.000000 
0.083600 -0.034638 -0.668527 111 89 72 -0.241016 -0.970121 0.027856 0.000000 
0.102075 -0.037465 -0.638509 133 98 65 0.801126 0.374073 -0.467190 0.000000 
0.118675 -0.038394 -0.617877 132 98 73 -0.588315 0.464282 0.662063 0.000000 
0.101270 -0.034131 -0.636030 125 107 90 0.438514 -0.729753 -0.524562 0.000000 
0.077124 -0.032513 -0.670325 137 99 77 0.236567 0.936469 0.258964 0.000000 
0.106110 -0.041865 -0.632706 116 91 71 -0.420140 -0.826012 0.375748 0.000000 
0.087550 -0.034480 -0.650555 149 128 110 -0.042871 -0.968889 0.243753 0.000000 
0.103553 -0.033097 -0.636173 85 79 67 -0.383969 -0.923324 -0.006421 0.000000 
0.114060 -0.034503 -0.623367 111 95 82 -0.364385 0.733673 0.573539 0.000000 
0.077500 -0.034512 -0.663497 129 100 86 -0.075546 0.972188 0.221684 0.000000 
0.067399 -0.033857 -0.678000 136 108 93 -0.711000 0.290499 0.640382 0.000000 
0.107224 -0.034118 -0.630872 132 119 107 0.581344 0.799535 -0.150940 0.000000 
0.074412 -0.032721 -0.673516 126 95 76 -0.116225 -0.992896 -0.025459 0.000000 
0.093970 -0.035599 -0.648822 125 103 82 0.066867 0.940078 -0.334337 0.000000 
0.073412 -0.033869 -0.669430 155 127 105 -0.559869 0.706067 0.433608 0.000000 
0.091483 -0.034433 -0.648353 140 103 85 0.113926 0.942238 -0.314973 0.000000 
0.066847 -0.031856 -0.680437 131 107 93 -0.500875 0.710544 0.494219 0.000000 
0.112306 -0.039411 -0.624617 134 100 76 -0.714446 0.089123 0.693991 0.000000 
0.099865 -0.040470 -0.645419 111 98 86 0.636167 0.678906 -0.366577 0.000000 
0.070505 -0.032395 -0.677219 132 98 81 -0.080996 0.901939 0.424200 0.000000 
0.066827 -0.032578 -0.679712 135 108 94 -0.706067 0.559869 0.433608 0.000000 
0.080913 -0.033891 -0.668727 117 89 69 -0.102613 0.969119 0.224228 0.000000 
0.093869 -0.032961 -0.643351 119 94 76 -0.727502 0.423964 0.539440 0.000000 
0.085009 -0.034947 -0.669870 89 78 66 0.322835 0.938789 -0.120219 0.000000 
0.118563 -0.042004 -0.616873 149 118 94 -0.642962 -0.322291 0.694787 0.000000 
0.122521 -0.038817 -0.615025 117 96 81 0.413538 -0.140688 -0.899552 0.000000 
0.119325 -0.042131 -0.615850 162 130 99 0.604600 0.362105 -0.709463 0.000000 
0.090137 -0.038256 -0.653925 104 82 58 0.380052 0.748687 -0.543165 0.000000 
0.106285 -0.034077 -0.634081 97 85 72 -0.318187 -0.812088 0.489152 0.000000 
0.077259 -0.033326 -0.672833 129 91 71 0.186357 0.972353 -0.140719 0.000000 
0.125015 -0.040627 -0.612790 138 126 113 0.562920 0.066643 -0.823820 0.000000 
0.106295 -0.039210 -0.632317 137 105 78 -0.768473 -0.038071 0.638749 0.000000 
0.087183 -0.035036 -0.656792 130 99 80 -0.111853 -0.990534 -0.079566 0.000000 
0.096950 -0.033571 -0.640162 127 96 81 0.716641 -0.557755 -0.418730 0.000000 
0.101066 -0.037165 -0.640131 145 108 73 -0.911941 -0.033089 0.408984 0.000000 
0.107634 -0.038804 -0.630851 131 103 77 -0.845085 0.034465 0.533520 0.000000 
0.122206 -0.040914 -0.613971 151 130 112 -0.469608 -0.079429 0.879295 0.000000 
0.083551 -0.034261 -0.669535 110 91 79 0.275766 0.955378 -0.105863 0.000000 
0.085609 -0.035233 -0.660952 134 99 79 0.144236 -0.956722 -0.252744 0.000000 
0.063094 -0.032833 -0.684658 134 107 91 -0.683435 0.434006 0.586989 0.000000 
0.111719 -0.041251 -0.625247 139 114 95 0.737558 0.275588 -0.616490 0.000000 
0.076118 -0.033950 -0.677001 95 74 60 -0.095740 -0.963780 0.248923 0.000000 
0.072883 -0.034751 -0.669305 145 111 90 0.754409 -0.488147 -0.438839 0.000000 
0.069916 -0.032936 -0.677010 132 100 84 0.231101 -0.795668 -0.559915 0.000000 
0.108481 -0.042683 -0.628170 106 91 75 -0.702406 -0.535563 0.468827 0.000000 
0.121585 -0.038016 -0.614636 108 99 90 0.457496 -0.457496 -0.762493 0.000000 
0.072564 -0.033023 -0.673391 131 95 77 -0.445431 0.894875 0.028090 0.000000 
0.113719 -0.037295 -0.622842 126 97 72 -0.537606 0.127443 0.833509 0.000000 
0.090021 -0.034874 -0.649244 129 99 82 0.335164 0.870814 -0.359651 0.000000 
0.069967 -0.033413 -0.676723 140 106 85 0.412952 -0.741998 -0.528118 0.000000 
0.078431 -0.034573 -0.666860 121 86 66 0.036531 0.981611 0.187366 0.000000 
0.079456 -0.035247 -0.663563 129 100 81 0.251314 0.967252 0.035552 0.000000 
0.112743 -0.039583 -0.623772 135 102 79 -0.753231 0.095068 0.650850 0.000000 
0.083875 -0.034097 -0.667616 115 93 75 -0.228168 -0.972458 0.047586 0.000000 
0.072887 -0.032723 -0.674667 145 103 80 0.263615 -0.961495 -0.077684 0.000000 
0.085321 -0.033548 -0.656533 156 138 118 0.250069 0.956614 -0.149512 0.000000 
0.069532 -0.035012 -0.675023 140 110 91 -0.786299 0.410173 0.462052 0.000000 
0.064421 -0.036141 -0.681654 107 88 74 -0.786088 -0.049573 0.616123 0.000000 
0.116627 -0.040611 -0.619071 151 117 88 0.800761 -0.094464 -0.591488 0.000000 
0.094410 -0.033536 -0.642884 119 93 75 0.808022 -0.246594 -0.535062 0.000000 
0.082931 -0.035493 -0.662437 128 92 72 0.064242 0.978180 0.197575 0.000000 
0.089203 -0.036141 -0.652879 143 120 97 -0.626821 -0.660074 0.414001 0.000000 
0.106912 -0.036097 -0.630587 125 101 76 0.737039 0.440245 -0.512794 0.000000 
0.104412 -0.038521 -0.635262 127 91 63 -0.872776 0.028504 0.487288 0.000000 
0.080883 -0.036819 -0.663737 119 90 64 -0.087072 -0.977418 -0.192540 0.000000 
0.099813 -0.035064 -0.636929 129 101 78 -0.652047 -0.175610 0.737561 0.000000 
0.090681 -0.036740 -0.652686 141 119 94 -0.669013 -0.665757 0.330437 0.000000 
0.079579 -0.035079 -0.660137 127 103 87 0.139297 0.988895 -0.051805 0.000000 
0.106933 -0.039205 -0.631761 135 104 76 0.810433 0.026412 -0.585236 0.000000 
0.091465 -0.035596 -0.646626 112 86 70 0.743648 -0.172551 -0.645920 0.000000 
0.107678 -0.040872 -0.629640 133 98 74 -0.862003 -0.104355 0.496045 0.000000 
0.103056 -0.040492 -0.637689 149 120 93 0.744588 0.268306 -0.611229 0.000000 
0.090275 -0.034952 -0.651976 133 106 85 0.559007 0.820171 -0.121779 0.000000 
0.101304 -0.038443 -0.639771 133 96 63 -0.908131 -0.060722 0.414259 0.000000 
0.114810 -0.036226 -0.622615 130 110 94 -0.602149 0.239295 0.761679 0.000000 
0.109829 -0.035108 -0.626695 125 94 75 0.690808 0.110943 -0.714476 0.000000 
0.107468 -0.036687 -0.630754 120 92 70 -0.833244 -0.188346 0.519836 0.000000 
0.073370 -0.033448 -0.669452 141 116 100 0.387407 -0.842257 -0.374859 0.000000 
0.076358 -0.033331 -0.669496 126 91 72 0.153783 0.862651 0.481854 0.000000 
0.095473 -0.035900 -0.650607 112 94 79 0.289875 0.934043 -0.208654 0.000000 
0.066383 -0.034151 -0.679583 133 103 86 -0.803345 0.236824 0.546398 0.000000 
0.115522 -0.039349 -0.620296 136 106 79 -0.710751 0.351291 0.609449 0.000000 
0.104970 -0.041259 -0.636674 156 133 111 -0.791512 -0.391726 0.469104 0.000000 
0.082150 -0.034650 -0.657888 140 108 92 0.128871 -0.961976 0.240819 0.000000 
0.079669 -0.035708 -0.661264 144 121 99 -0.191009 -0.977227 -0.092424 0.000000 
0.090971 -0.035466 -0.657420 125 109 93 0.669471 0.308118 -0.675923 0.000000 
0.076927 -0.033334 -0.672445 120 88 71 -0.198898 -0.945107 0.259253 0.000000 
0.078975 -0.034006 -0.669004 137 98 76 0.035489 0.968001 0.248425 0.000000 
0.088748 -0.034720 -0.651111 131 101 83 -0.257571 -0.902233 0.345880 0.000000 
0.114194 -0.035200 -0.623213 110 89 76 0.527033 -0.467180 -0.709915 0.000000 
0.081713 -0.035976 -0.657586 123 99 86 0.286326 -0.939205 0.189501 0.000000 
0.072385 -0.033131 -0.672598 140 102 82 0.643443 -0.744315 -0.178819 0.000000 
0.100643 -0.035148 -0.636676 144 110 78 0.586818 0.228812 -0.776717 0.000000 
0.095326 -0.034838 -0.642638 133 109 81 0.831454 0.063524 -0.551950 0.000000 
0.083055 -0.035499 -0.661093 127 93 74 -0.182546 -0.980428 0.073744 0.000000 
0.119861 -0.042964 -0.615985 155 129 106 -0.558275 -0.458286 0.691595 0.000000 
0.104653 -0.036732 -0.637816 99 83 68 -0.762109 0.052707 0.645300 0.000000 
0.083574 -0.034481 -0.663778 110 85 60 0.088664 -0.959889 -0.265993 0.000000 
0.099067 -0.035492 -0.637840 116 90 74 0.560133 0.276122 -0.781030 0.000000 
0.095757 -0.033966 -0.641503 144 118 92 0.765245 -0.381810 -0.518287 0.000000 
0.104801 -0.036469 -0.634893 129 102 76 0.965702 0.076803 -0.248036 0.000000 
0.115350 -0.036756 -0.620841 115 99 89 0.770965 -0.073494 -0.632623 0.000000 
0.111935 -0.035599 -0.625594 114 94 83 -0.335233 0.733626 0.591111 0.000000 
0.077229 -0.033961 -0.668748 120 88 66 -0.183388 -0.939001 -0.290939 0.000000 
0.070002 -0.032206 -0.677863 129 98 82 -0.225063 -0.947994 -0.225063 0.000000 
0.078968 -0.034746 -0.661372 132 102 86 0.308962 0.947744 0.079522 0.000000 
0.063873 -0.035161 -0.682892 110 94 81 0.822981 -0.072742 -0.563392 0.000000 
0.101317 -0.037962 -0.640069 140 102 67 -0.861520 -0.325189 0.389918 0.000000 
0.109383 -0.040517 -0.628199 141 115 91 -0.784689 0.032286 0.619048 0.000000 
0.068139 -0.035294 -0.676260 122 100 87 0.829895 -0.211661 -0.516210 0.000000 
0.101267 -0.037540 -0.639976 133 97 66 -0.917464 -0.219675 0.331666 0.000000 
0.072979 -0.033234 -0.670409 142 118 103 -0.401538 0.854237 0.330222 0.000000 
0.110153 -0.040447 -0.626866 138 109 84 0.752587 -0.110892 -0.649088 0.000000 
0.076211 -0.032304 -0.670472 128 96 78 0.005752 -0.981353 -0.192129 0.000000 
0.077408 -0.035800 -0.662270 116 99 86 0.017982 -0.997472 -0.068755 0.000000 
0.089332 -0.037228 -0.653470 117 95 71 0.527856 0.192085 -0.827328 0.000000 
0.075088 -0.032941 -0.673605 123 91 73 -0.353142 -0.934327 -0.048215 0.000000 
0.115877 -0.036488 -0.622430 110 89 77 0.488539 -0.357194 -0.796079 0.000000 
0.070298 -0.034103 -0.674649 138 104 86 0.524300 -0.741252 -0.419112 0.000000 
0.090690 -0.035736 -0.654403 138 108 86 -0.289843 -0.928913 -0.230461 0.000000 
0.077883 -0.033382 -0.670160 135 94 72 -0.319308 -0.888966 -0.328303 0.000000 
0.074971 -0.032831 -0.674631 115 85 70 0.338099 0.937396 -0.083530 0.000000 
0.080572 -0.036315 -0.658202 121 101 87 -0.168393 0.979631 0.109394 0.000000 
0.075598 -0.034964 -0.665218 127 99 85 -0.625631 0.595277 0.504214 0.000000 
0.076876 -0.033496 -0.673133 110 83 65 -0.205700 -0.969727 0.131597 0.000000 
0.113424 -0.040821 -0.622879 124 92 66 -0.872625 -0.017479 0.488078 0.000000 
0.084723 -0.034146 -0.652710 115 96 77 -0.414354 -0.896093 0.159146 0.000000 
0.084475 -0.034624 -0.665341 112 91 71 -0.049896 0.987474 0.149688 0.000000 
0.086616 -0.034509 -0.657639 129 104 85 -0.106647 -0.994292 0.003232 0.000000 
0.115804 -0.041605 -0.619569 135 91 62 -0.737275 -0.202480 0.644536 0.000000 
0.114647 -0.038019 -0.622379 129 94 71 -0.681407 0.258903 0.684583 0.000000 
0.073173 -0.032597 -0.675993 123 90 72 -0.023202 0.999690 -0.009079 0.000000 
0.070371 -0.033746 -0.675069 136 101 83 -0.447255 0.823392 0.349270 0.000000 
0.090427 -0.035788 -0.656633 130 101 86 0.889351 -0.067354 -0.452236 0.000000 
0.099393 -0.040621 -0.643069 122 103 82 0.710507 0.616206 -0.339808 0.000000 
0.089488 -0.037497 -0.653588 114 89 68 0.557522 0.159933 -0.814611 0.000000 
0.076302 -0.034281 -0.665897 125 96 79 0.217582 -0.941008 -0.259158 0.000000 
0.120677 -0.039350 -0.614366 152 124 99 -0.162647 0.070045 0.984195 0.000000 
0.105479 -0.034675 -0.631710 121 95 80 0.119238 0.979720 0.161033 0.000000 
0.075109 -0.033031 -0.671669 139 100 78 0.011009 -0.999855 -0.013011 0.000000 
0.080310 -0.033997 -0.669239 129 89 69 0.079687 -0.977083 -0.197378 0.000000 
0.110261 -0.042850 -0.629380 135 125 117 -0.639475 -0.599193 0.481704 0.000000 
0.072801 -0.032942 -0.672551 139 103 82 -0.422000 0.894067 0.150203 0.000000 
0.099855 -0.036233 -0.638968 130 97 66 0.617632 0.708891 -0.340594 0.000000 
0.077128 -0.034910 -0.663059 123 100 88 -0.075546 0.972188 0.221684 0.000000 
0.105708 -0.041651 -0.636600 116 97 77 0.540410 0.769480 -0.340378 0.000000 
0.084125 -0.034811 -0.655616 156 133 110 -0.326770 -0.916970 0.228883 0.000000 
0.091197 -0.038823 -0.655980 94 75 55 0.770592 0.563186 -0.298345 0.000000 
0.067999 -0.032065 -0.680090 132 102 86 -0.258731 0.924857 0.278744 0.000000 
0.104542 -0.038633 -0.635241 134 105 73 -0.878997 0.020130 0.476403 0.000000 
0.099981 -0.036788 -0.638542 121 94 66 0.610820 0.702525 -0.365182 0.000000 
0.078434 -0.034835 -0.660825 152 134 120 0.188376 0.981661 -0.029251 0.000000 
0.096153 -0.033691 -0.641547 124 96 79 -0.584488 0.759675 0.285077 0.000000 
0.069360 -0.034084 -0.676401 139 103 85 -0.572058 0.688805 0.445305 0.000000 
0.074952 -0.035954 -0.666492 117 95 82 0.590381 -0.543015 -0.597147 0.000000 
0.088106 -0.035063 -0.661759 113 96 79 0.101756 0.985237 0.137670 0.000000 
0.120684 -0.038361 -0.614996 132 98 75 0.501191 -0.528010 -0.685575 0.000000 
0.088257 -0.035108 -0.660752 132 113 96 0.157755 0.986833 0.035696 0.000000 
0.102847 -0.039536 -0.637421 140 107 78 -0.797905 -0.257641 0.544949 0.000000 
0.113369 -0.043421 -0.622251 110 90 62 0.834186 0.287382 -0.470686 0.000000 
0.074523 -0.033150 -0.670432 144 112 89 -0.136709 0.962172 0.235661 0.000000 
0.101224 -0.034054 -0.635533 121 97 82 -0.508238 0.682683 0.525012 0.000000 
0.078189 -0.034725 -0.666455 120 90 68 -0.151244 -0.984874 -0.084554 0.000000 
0.096046 -0.035704 -0.649923 122 98 84 -0.424527 -0.893365 0.147227 0.000000 
0.119432 -0.039605 -0.614593 133 108 84 -0.698635 0.012550 0.715368 0.000000 
0.075152 -0.033395 -0.676624 107 79 61 -0.196337 -0.966084 0.167732 0.000000 
0.104360 -0.038176 -0.634029 117 84 61 0.936887 0.037475 -0.347617 0.000000 
0.108279 -0.043089 -0.630790 122 93 69 -0.662669 -0.659396 0.355059 0.000000 
0.120506 -0.042510 -0.615685 131 111 93 0.507733 0.422289 -0.750919 0.000000 
0.103470 -0.034563 -0.633283 131 119 107 -0.612460 -0.534848 0.582090 0.000000 
0.100159 -0.033423 -0.636775 131 109 91 -0.549053 0.549053 0.630144 0.000000 
0.112879 -0.042925 -0.624669 147 124 107 -0.769917 -0.459335 0.442989 0.000000 
0.104753 -0.038749 -0.634142 118 85 59 -0.918108 -0.014285 0.396072 0.000000 
0.101161 -0.033170 -0.637269 117 99 84 0.424249 -0.840670 -0.336581 0.000000 
0.113613 -0.042579 -0.622906 142 118 96 0.870051 0.137529 -0.473389 0.000000 
0.068235 -0.035575 -0.676285 127 99 84 -0.854525 0.132473 0.502233 0.000000 
0.117702 -0.039856 -0.617859 154 119 87 -0.717849 0.293885 0.631129 0.000000 
0.113173 -0.037505 -0.624189 129 98 74 0.827245 -0.099616 -0.552940 0.000000 
0.090890 -0.035053 -0.647054 145 125 105 -0.754885 0.209260 0.621578 0.000000 
0.101780 -0.036593 -0.638343 136 102 72 -0.870422 -0.322775 0.371727 0.000000 
0.102263 -0.034042 -0.634606 116 97 83 -0.214009 -0.954293 -0.208625 0.000000 
0.064607 -0.034220 -0.682311 137 112 95 0.818938 -0.195998 -0.539375 0.000000 
0.099284 -0.038551 -0.642201 126 94 65 -0.556567 -0.223552 0.800161 0.000000 
0.066587 -0.032111 -0.683367 115 94 81 0.511246 -0.744676 -0.429052 0.000000 
0.077470 -0.035038 -0.662749 143 119 98 0.102376 -0.984012 -0.145735 0.000000 
0.115370 -0.036060 -0.623308 104 92 82 -0.344789 0.465545 0.815100 0.000000 
0.069122 -0.032059 -0.678081 133 99 81 0.064106 0.964101 0.257680 0.000000 
0.110634 -0.042174 -0.629426 147 130 114 -0.669264 -0.545140 0.504884 0.000000 
0.118751 -0.040276 -0.615404 140 107 80 -0.811331 -0.137941 0.568080 0.000000 
0.104048 -0.040586 -0.636567 144 118 95 0.799672 0.316371 -0.510327 0.000000 
0.085172 -0.035009 -0.658814 139 102 82 -0.213844 -0.949360 0.230189 0.000000 
0.069084 -0.034842 -0.675118 128 102 88 -0.759866 0.413432 0.501675 0.000000 
0.071067 -0.034935 -0.673125 138 104 87 -0.684712 0.304496 0.662157 0.000000 
0.095324 -0.035067 -0.641633 115 86 69 -0.706195 -0.251197 0.661959 0.000000 
0.117203 -0.037243 -0.619064 123 112 101 0.618896 -0.336250 -0.709862 0.000000 
0.105826 -0.039787 -0.632923 139 111 85 -0.818055 -0.057928 0.572215 0.000000 
0.072725 -0.033004 -0.673481 144 105 82 0.441388 -0.897269 0.009223 0.000000 
0.089009 -0.035941 -0.654740 133 97 78 0.147080 0.987870 0.049799 0.000000 
0.084774 -0.034158 -0.665621 125 105 88 -0.020947 -0.993311 -0.113553 0.000000 
0.071601 -0.035822 -0.672491 126 96 81 -0.826843 0.326013 0.458308 0.000000 
0.095176 -0.035412 -0.643057 129 103 73 -0.924605 0.038033 0.379023 0.000000 
0.079173 -0.034915 -0.661805 128 100 83 0.344548 0.935957 0.072606 0.000000 
0.073663 -0.032013 -0.676074 134 107 87 0.055203 0.985424 -0.160910 0.000000 
0.114824 -0.038469 -0.622669 132 104 81 -0.576924 0.287667 0.764464 0.000000 
0.073063 -0.034304 -0.668592 130 101 86 0.605334 -0.662032 -0.441910 0.000000 
0.082518 -0.034996 -0.664814 125 94 71 0.152817 -0.969554 -0.191342 0.000000 
0.106487 -0.034450 -0.630708 114 99 86 -0.751188 -0.277924 0.598727 0.000000 
0.084012 -0.032948 -0.653278 112 94 77 -0.547309 -0.820213 0.166442 0.000000 
0.063311 -0.032718 -0.684943 130 106 91 -0.671053 0.424612 0.607777 0.000000 
0.075594 -0.032752 -0.674649 112 83 67 0.371074 0.925676 -0.073679 0.000000 
0.079592 -0.034716 -0.666415 125 92 71 0.017611 0.978010 0.207812 0.000000 
0.063402 -0.031068 -0.683885 94 81 66 -0.607648 0.614381 0.503288 0.000000 
0.097353 -0.037378 -0.642038 115 84 62 -0.642737 -0.642737 0.416866 0.000000 
0.120079 -0.041793 -0.615180 156 131 107 0.477986 0.445135 -0.757222 0.000000 
0.085910 -0.034340 -0.653381 128 106 88 -0.326711 -0.945084 0.008762 0.000000 
0.085170 -0.034910 -0.654480 137 112 97 -0.421888 -0.839070 0.343470 0.000000 
0.109284 -0.041698 -0.627761 128 95 71 -0.749602 -0.456351 0.479416 0.000000 
0.089972 -0.034264 -0.653815 142 128 112 -0.148446 -0.966836 0.207825 0.000000 
0.078569 -0.034768 -0.663869 126 96 79 0.175006 0.981241 0.080865 0.000000 
0.075926 -0.033554 -0.669204 129 93 74 0.020086 0.882434 0.470007 0.000000 
0.063817 -0.034415 -0.682163 114 96 84 -0.820654 0.176177 0.543589 0.000000 
0.087453 -0.037743 -0.653441 108 82 65 0.214736 0.287719 -0.933331 0.000000 
0.089459 -0.034647 -0.651484 146 119 99 -0.220249 -0.968840 0.113307 0.000000 
0.115730 -0.037209 -0.622295 122 108 98 -0.657965 0.199712 0.726084 0.000000 
0.101344 -0.035427 -0.637178 138 109 81 -0.491343 -0.387561 0.779986 0.000000 
0.066742 -0.034011 -0.679862 135 105 84 0.805433 -0.305400 -0.507945 0.000000 
0.112104 -0.042346 -0.625988 134 119 104 -0.701745 -0.419720 0.575664 0.000000 
0.086109 -0.037105 -0.658636 132 103 76 -0.495172 -0.733650 0.465363 0.000000 
0.119765 -0.040452 -0.614190 142 134 124 0.488788 0.154122 -0.858681 0.000000 
0.075173 -0.033123 -0.670724 138 97 76 0.148109 -0.960739 -0.234614 0.000000 
0.081814 -0.033527 -0.669255 136 113 93 -0.119517 -0.989784 -0.077744 0.000000 
0.112477 -0.041313 -0.624146 139 112 90 0.817341 0.075865 -0.571137 0.000000 
0.070429 -0.032461 -0.677405 128 99 83 0.081207 -0.898782 -0.430810 0.000000 
0.105826 -0.039787 -0.632923 139 111 85 -0.818055 -0.057928 0.572215 0.000000 
0.091679 -0.036253 -0.649695 147 122 94 0.483931 0.784972 -0.386821 0.000000 
0.083134 -0.034971 -0.658238 135 107 91 0.094510 0.969044 -0.228084 0.000000 
0.074688 -0.036535 -0.666068 111 97 85 -0.588625 0.527907 0.612237 0.000000 
0.069917 -0.034152 -0.674442 132 106 89 0.622842 -0.642879 -0.445841 0.000000 
0.111317 -0.042632 -0.628358 142 123 105 0.641647 0.618193 -0.454011 0.000000 
0.074026 -0.032418 -0.673304 134 99 79 -0.053648 0.998267 0.024194 0.000000 
0.085183 -0.035888 -0.668867 98 81 67 0.300369 0.950519 -0.079318 0.000000 
0.076000 -0.034161 -0.666885 123 95 75 -0.178660 0.910451 0.373042 0.000000 
0.078568 -0.034569 -0.664080 130 94 77 -0.232790 -0.972520 -0.003545 0.000000 
0.114113 -0.036092 -0.622641 113 98 90 -0.414069 0.345318 0.842201 0.000000 
0.072379 -0.034055 -0.670991 141 108 89 -0.741247 0.621131 0.254458 0.000000 
0.118468 -0.043057 -0.618350 147 118 96 -0.781930 -0.365975 0.504627 0.000000 
0.094138 -0.039600 -0.653059 106 81 57 -0.541279 0.350619 0.764253 0.000000 
0.082719 -0.035199 -0.664109 129 91 70 -0.054543 0.975722 0.212113 0.000000 
0.081979 -0.034921 -0.664290 139 103 82 0.049203 -0.989776 -0.133877 0.000000 
0.078164 -0.034445 -0.663231 135 101 85 -0.121550 -0.987741 -0.097948 0.000000 
0.086993 -0.035214 -0.667226 82 78 66 -0.245120 -0.966652 0.074164 0.000000 
0.078398 -0.034416 -0.667306 118 89 68 -0.059436 -0.976445 -0.207419 0.000000 
0.117425 -0.041311 -0.621852 121 109 102 0.626974 0.123023 -0.769265 0.000000 
0.082916 -0.035203 -0.660265 129 98 80 0.083742 0.987213 -0.135639 0.000000 
0.101304 -0.038443 -0.639771 133 96 63 0.908131 0.060722 -0.414259 0.000000 
0.105323 -0.034690 -0.631664 128 105 85 -0.769852 -0.113779 0.627998 0.000000 
0.080573 -0.034717 -0.659170 137 113 97 -0.220964 0.959274 0.175977 0.000000 
0.117255 -0.044486 -0.616798 118 108 89 -0.764253 -0.350619 0.541279 0.000000 
0.086550 -0.038163 -0.660619 94 66 39 0.259295 0.242476 0.934864 0.000000 
0.124106 -0.041632 -0.612069 109 103 93 -0.460352 0.003957 0.887728 0.000000 
0.100313 -0.037361 -0.641586 131 100 72 0.641624 -0.092078 -0.761472 0.000000 
0.066122 -0.033923 -0.679528 130 105 91 0.769978 -0.256659 -0.584175 0.000000 
0.108157 -0.038225 -0.629812 126 99 74 -0.842770 0.045969 0.536308 0.000000 
0.069480 -0.032677 -0.677605 134 99 81 -0.102718 0.826088 0.554101 0.000000 
0.074559 -0.032878 -0.671742 125 93 74 0.023267 -0.963764 -0.265739 0.000000 
0.084486 -0.035121 -0.663492 134 101 81 0.313439 -0.934795 -0.167076 0.000000 
0.085614 -0.034469 -0.662349 115 96 78 -0.207386 0.967370 0.145556 0.000000 
0.070390 -0.035453 -0.673295 130 100 85 -0.690306 0.244846 0.680829 0.000000 
0.092549 -0.038714 -0.653203 112 88 63 -0.254458 -0.621131 0.741247 0.000000 
0.118048 -0.037416 -0.618814 122 111 100 -0.592126 0.397500 0.700985 0.000000 
0.105888 -0.038955 -0.632673 136 108 82 -0.787280 -0.091680 0.609742 0.000000 
0.116791 -0.040769 -0.617504 154 120 87 -0.788189 -0.032200 0.614591 0.000000 
0.070981 -0.033361 -0.675612 133 99 80 0.461989 -0.782950 -0.416601 0.000000 
0.111133 -0.041611 -0.625708 131 100 71 -0.747122 -0.292769 0.596737 0.000000 
0.080216 -0.035213 -0.659269 153 133 113 0.206874 -0.970910 -0.120571 0.000000 
0.090204 -0.035506 -0.652599 139 103 84 -0.757890 -0.652203 0.015297 0.000000 
0.118510 -0.039338 -0.615834 121 101 86 0.819131 -0.408770 -0.402408 0.000000 
0.074108 -0.033701 -0.668714 145 115 94 -0.349763 0.824554 0.444721 0.000000 
0.103442 -0.038953 -0.636881 136 104 75 -0.747203 -0.107586 0.655829 0.000000 
0.100326 -0.041507 -0.639039 90 77 59 -0.753466 -0.088900 0.651449 0.000000 
0.076630 -0.036047 -0.665258 130 105 85 0.516513 -0.788362 -0.334214 0.000000 
0.083708 -0.037143 -0.661123 125 97 72 0.125430 0.988199 0.087918 0.000000 
0.070226 -0.033739 -0.675608 134 99 81 0.509900 -0.783348 -0.355482 0.000000 
0.112872 -0.038727 -0.624103 133 105 81 0.758164 -0.032352 -0.651261 0.000000 
0.110523 -0.040969 -0.626078 138 100 73 -0.697866 -0.254777 0.669382 0.000000 
0.094048 -0.036517 -0.654479 109 92 79 0.525047 -0.198217 -0.827669 0.000000 
0.076124 -0.034317 -0.665565 128 97 82 0.381697 -0.840361 -0.384838 0.000000 
0.081502 -0.035134 -0.660503 135 106 86 0.025114 0.994734 -0.099364 0.000000 
0.119559 -0.039791 -0.614665 131 99 79 -0.660818 -0.104495 0.743236 0.000000 
0.072674 -0.036088 -0.669529 114 92 81 -0.902900 0.134234 0.408354 0.000000 
0.075098 -0.034791 -0.666430 131 103 89 -0.557562 0.638417 0.530611 0.000000 
0.083533 -0.034533 -0.654376 126 102 88 -0.423100 -0.850850 0.311513 0.000000 
0.086590 -0.036218 -0.654491 136 111 87 0.829793 0.534822 0.159404 0.000000 
0.114514 -0.038706 -0.621133 114 91 80 0.781390 -0.259415 -0.567569 0.000000 
0.073318 -0.033587 -0.669606 134 101 83 0.385463 -0.835431 -0.391756 0.000000 
0.107882 -0.036957 -0.633421 96 78 63 -0.701717 0.179652 0.689433 0.000000 
0.102027 -0.037959 -0.638543 129 95 61 0.831600 0.214361 -0.512339 0.000000 
0.095605 -0.039579 -0.649836 114 87 59 0.852799 -0.433339 -0.291463 0.000000 
0.083036 -0.034996 -0.663993 148 113 90 -0.051314 0.962445 0.266581 0.000000 
0.111534 -0.036378 -0.625582 127 95 76 0.438721 -0.236699 -0.866889 0.000000 
0.103588 -0.034426 -0.634931 106 92 76 0.643045 0.763348 0.061583 0.000000 
0.103087 -0.040886 -0.638472 159 132 108 -0.642724 -0.202884 0.738745 0.000000 
0.091525 -0.036578 -0.647249 126 102 77 -0.659876 -0.579281 0.478536 0.000000 
0.097037 -0.037426 -0.643158 134 102 68 -0.623420 -0.663319 0.413951 0.000000 
0.065907 -0.036419 -0.681284 112 89 76 0.784798 0.082382 -0.614252 0.000000 
0.119992 -0.039412 -0.615089 134 97 73 0.607917 -0.311215 -0.730467 0.000000 
0.070432 -0.035678 -0.673314 127 97 82 0.706122 -0.123907 -0.697165 0.000000 
0.078484 -0.034134 -0.668879 134 93 73 -0.072006 -0.963873 -0.256443 0.000000 
0.102315 -0.035025 -0.635711 126 104 84 -0.409174 -0.803906 0.431638 0.000000 
0.067536 -0.032299 -0.682745 108 86 73 0.197583 -0.940935 -0.274958 0.000000 
0.079176 -0.034745 -0.665422 128 89 69 0.115356 0.989264 0.089721 0.000000 
0.117786 -0.037508 -0.619128 119 89 70 -0.619093 0.354468 0.700768 0.000000 
0.104410 -0.035171 -0.634201 135 114 91 -0.857279 -0.390796 0.335188 0.000000 
0.096709 -0.033816 -0.639959 118 91 75 0.774912 -0.211902 -0.595491 0.000000 
0.072297 -0.034174 -0.670951 138 104 86 0.753992 -0.595257 -0.277787 0.000000 
0.072582 -0.034777 -0.668710 122 104 91 0.725650 -0.486534 -0.486534 0.000000 
0.080302 -0.033992 -0.668831 133 93 73 -0.113028 0.968996 0.219707 0.000000 
0.079612 -0.034301 -0.667685 128 90 72 0.061015 -0.967524 -0.245305 0.000000 
0.096595 -0.036496 -0.650756 96 82 67 0.657351 0.670400 -0.344171 0.000000 
0.088964 -0.035331 -0.653384 136 100 81 0.166640 0.937868 -0.304359 0.000000 
0.096693 -0.034107 -0.640193 133 112 90 0.767244 -0.228772 -0.599166 0.000000 
0.076983 -0.034353 -0.665819 125 90 73 -0.116990 -0.991572 -0.055655 0.000000 
0.095447 -0.034441 -0.641410 122 90 73 -0.744985 0.049856 0.665216 0.000000 
0.080382 -0.035358 -0.662246 127 99 82 0.124715 0.973787 0.190222 0.000000 
0.111764 -0.039561 -0.625078 121 87 61 -0.718769 0.089297 0.689491 0.000000 
0.075232 -0.032779 -0.680389 123 100 82 -0.025227 -0.971848 0.234253 0.000000 
0.065450 -0.034197 -0.680971 137 106 88 -0.811563 0.072998 0.579688 0.000000 
0.096961 -0.039309 -0.646463 138 105 73 0.837924 -0.117629 -0.532960 0.000000 
0.111275 -0.039459 -0.625229 114 86 58 0.726271 -0.020990 -0.687088 0.000000 
0.091349 -0.039484 -0.655580 102 86 68 -0.216865 -0.947931 0.233232 0.000000 
0.091651 -0.034865 -0.646850 131 99 80 0.701070 -0.301380 -0.646274 0.000000 
0.075926 -0.033554 -0.669204 129 93 74 -0.020086 -0.882434 -0.470007 0.000000 
0.109734 -0.039925 -0.627697 139 108 84 0.779487 -0.094704 -0.619218 0.000000 
0.105236 -0.037455 -0.633148 133 100 71 -0.903474 -0.183000 0.387615 0.000000 
0.092594 -0.039233 -0.654906 100 79 56 0.244841 -0.556740 -0.793784 0.000000 
0.063012 -0.034463 -0.684169 123 100 86 0.739576 -0.328521 -0.587453 0.000000 
0.077885 -0.034611 -0.666218 123 87 68 0.189346 0.978493 0.081847 0.000000 
0.094235 -0.036013 -0.643591 112 84 65 0.759741 -0.126376 -0.637826 0.000000 
0.075461 -0.033141 -0.675460 107 80 63 -0.317755 -0.942630 0.102373 0.000000 
0.116250 -0.043002 -0.620627 155 124 102 -0.672247 -0.448721 0.588841 0.000000 
0.088826 -0.035271 -0.657060 131 104 87 -0.274399 -0.886174 -0.373363 0.000000 
0.101231 -0.040786 -0.639098 117 94 73 -0.777959 -0.012481 0.628191 0.000000 
0.072004 -0.035013 -0.672056 139 107 89 -0.781288 0.517100 0.349566 0.000000 
0.110374 -0.035176 -0.626431 123 95 80 0.629943 -0.148841 -0.762246 0.000000 
0.087813 -0.035155 -0.652808 133 104 87 0.242485 0.900868 -0.360053 0.000000 
0.089411 -0.035011 -0.651488 140 108 90 0.293917 0.946171 -0.135551 0.000000 
0.074401 -0.032590 -0.674959 127 92 73 -0.133550 -0.986855 0.091003 0.000000 
0.101575 -0.037839 -0.639319 137 100 66 0.842968 0.459379 -0.279958 0.000000 
0.070981 -0.033361 -0.675612 133 99 80 0.461989 -0.782950 -0.416601 0.000000 
0.105975 -0.041270 -0.634105 137 112 86 0.473257 0.843899 -0.252710 0.000000 
0.082082 -0.034970 -0.659368 138 102 84 -0.088480 -0.987433 0.130950 0.000000 
0.083153 -0.034586 -0.657138 140 110 95 0.073848 -0.949658 0.304461 0.000000 
0.113546 -0.038339 -0.625883 132 116 104 0.631656 -0.236675 -0.738238 0.000000 
0.108869 -0.040158 -0.627086 118 103 94 -0.787374 0.043822 0.614915 0.000000 
0.108640 -0.037329 -0.629307 121 94 70 -0.775346 -0.107401 0.622337 0.000000 
0.108117 -0.042156 -0.633595 150 130 111 -0.653101 -0.691803 0.308006 0.000000 
0.065930 -0.035035 -0.680497 136 110 93 -0.805857 -0.026444 0.591519 0.000000 
0.097195 -0.033296 -0.639531 136 118 99 0.500913 -0.732357 -0.461236 0.000000 
0.089291 -0.035875 -0.655014 125 98 79 -0.169154 0.976081 0.136576 0.000000 
0.086056 -0.034699 -0.654557 125 100 80 -0.391097 -0.920305 -0.009035 0.000000 
0.070062 -0.037180 -0.675503 106 81 66 0.816319 0.186284 -0.546737 0.000000 
0.078622 -0.034359 -0.667996 120 88 68 -0.045424 -0.968634 -0.244307 0.000000 
0.092133 -0.034497 -0.647371 126 93 76 -0.090497 -0.995462 0.029439 0.000000 
0.109081 -0.043537 -0.629534 114 85 64 0.669274 0.612809 -0.420164 0.000000 
0.095380 -0.035693 -0.649339 118 95 80 -0.453150 -0.885125 -0.105876 0.000000 
0.085061 -0.034838 -0.660235 129 101 81 -0.110916 0.991379 0.069751 0.000000 
0.096815 -0.036197 -0.649002 113 92 78 0.531117 0.831636 0.162162 0.000000 
0.084104 -0.035505 -0.661786 129 95 75 -0.232563 0.970860 0.057833 0.000000 
0.090959 -0.034241 -0.648449 148 116 95 0.242294 0.912592 -0.329346 0.000000 
0.119533 -0.037905 -0.618172 115 88 71 0.593587 -0.459821 -0.660470 0.000000 
0.086571 -0.034662 -0.653507 142 111 93 -0.174548 -0.980153 0.093987 0.000000 
0.121283 -0.040771 -0.613997 132 105 87 -0.260196 -0.224019 0.939209 0.000000 
0.082378 -0.034816 -0.665641 130 94 73 0.110039 -0.970110 -0.216283 0.000000 
0.086932 -0.034378 -0.650709 133 106 90 -0.196258 0.951514 0.236863 0.000000 
0.088623 -0.034161 -0.649862 134 107 85 -0.293517 -0.936194 0.193360 0.000000 
0.064548 -0.031977 -0.684267 121 96 80 0.607648 -0.614381 -0.503288 0.000000 
0.085176 -0.035024 -0.653385 122 98 84 0.433611 0.900577 -0.030686 0.000000 
0.074213 -0.032490 -0.673326 127 94 77 0.025471 -0.999488 -0.019358 0.000000 
0.094462 -0.040203 -0.650046 117 96 75 -0.745922 -0.623947 0.233003 0.000000 
0.091535 -0.037628 -0.652553 126 103 78 -0.476761 -0.509984 0.715972 0.000000 
0.111476 -0.036364 -0.628960 104 92 82 -0.714248 -0.114339 0.690490 0.000000 
0.105066 -0.037220 -0.634735 130 100 72 -0.970628 -0.070840 0.229918 0.000000 
0.087617 -0.034760 -0.660165 138 107 86 0.025212 0.994243 0.104138 0.000000 
0.110881 -0.036690 -0.626245 126 100 79 -0.716748 0.009742 0.697264 0.000000 
0.068328 -0.032431 -0.680165 127 103 89 -0.141810 0.955562 -0.258439 0.000000 
0.107418 -0.040315 -0.630213 137 100 73 -0.835716 -0.029008 0.548395 0.000000 
0.069217 -0.032563 -0.677870 132 100 85 0.236824 -0.803345 -0.546398 0.000000 
0.117109 -0.043182 -0.620167 135 111 91 -0.677710 -0.387498 0.624944 0.000000 
0.110303 -0.038245 -0.625860 120 102 91 -0.806656 -0.088025 0.584429 0.000000 
0.088012 -0.034587 -0.650629 155 135 115 -0.287705 -0.832011 0.474324 0.000000 
0.069864 -0.032617 -0.677162 130 103 87 -0.237781 0.797266 0.554822 0.000000 
0.104664 -0.035501 -0.636166 99 85 70 -0.859920 -0.410731 0.303049 0.000000 
0.099079 -0.038734 -0.642223 125 96 67 -0.559715 -0.269609 0.783601 0.000000 
0.095635 -0.036812 -0.652584 107 94 77 0.803072 0.170257 -0.571040 0.000000 
0.074688 -0.036535 -0.666068 111 97 85 0.588625 -0.527907 -0.612237 0.000000 
0.078341 -0.032771 -0.675747 117 100 86 -0.081042 -0.996710 -0.001052 0.000000 
0.114477 -0.037612 -0.622018 120 97 86 -0.639877 0.261984 0.722442 0.000000 
0.095452 -0.034021 -0.644632 121 90 73 0.737941 -0.399376 -0.544006 0.000000 
0.086272 -0.033932 -0.662544 92 80 64 0.109184 -0.985059 -0.133181 0.000000 
