ply
format ascii 1.0
comment Created by Open3D
obj_info Generated by CloudCompare!
element vertex 605
property float x
property float y
property float z
property uchar red
property uchar green
property uchar blue
property float nx
property float ny
property float nz
property float scalar_leaf9
end_header
-0.174179 -0.043338 -0.513032 99 91 76 0.628083 -0.101020 0.771561 0.000000 
-0.166734 -0.026133 -0.512261 152 138 127 -0.028718 -0.159672 0.986752 0.000000 
-0.140434 0.015326 -0.513573 97 87 72 -0.391367 -0.231867 0.890545 0.000000 
-0.099794 0.066487 -0.510114 84 77 60 0.545989 -0.515749 0.660226 0.000000 
-0.190834 -0.069802 -0.513095 166 155 136 -0.353470 0.247869 -0.902009 0.000000 
-0.134856 0.021953 -0.507879 93 83 62 0.283546 -0.312929 0.906464 0.000000 
-0.133162 0.023115 -0.509010 120 113 99 -0.460442 0.887323 0.025506 0.000000 
-0.171228 -0.036340 -0.512839 167 156 142 0.594231 -0.243023 0.766700 0.000000 
-0.181138 -0.049444 -0.512671 151 141 131 0.272771 -0.337647 0.900883 0.000000 
-0.159277 -0.013164 -0.511972 156 142 125 0.691595 -0.558275 -0.458286 0.000000 
-0.132825 0.022170 -0.512562 113 103 89 -0.736907 0.615946 -0.278529 0.000000 
-0.174750 -0.041019 -0.512684 119 107 90 0.062611 -0.219753 0.973544 0.000000 
-0.131786 0.025752 -0.513181 75 70 63 -0.332813 0.162925 0.928812 0.000000 
-0.132226 0.023088 -0.510616 127 117 105 -0.623212 0.695184 -0.358224 0.000000 
-0.097057 0.071816 -0.507890 115 101 81 -0.585982 0.804089 0.100329 0.000000 
-0.191309 -0.075232 -0.515581 86 75 54 -0.930409 0.256323 0.261987 0.000000 
-0.091897 0.076329 -0.506750 106 97 76 0.331297 0.105961 0.937558 0.000000 
-0.156556 -0.007596 -0.510749 120 115 104 -0.185323 0.472945 0.861382 0.000000 
-0.172518 -0.033525 -0.513124 137 127 112 0.651701 -0.269285 -0.709064 0.000000 
-0.147554 0.000309 -0.510387 99 89 73 -0.557619 0.513818 -0.651960 0.000000 
-0.160445 -0.014259 -0.513604 82 70 49 -0.922987 0.384035 0.024734 0.000000 
-0.172375 -0.038549 -0.513459 112 104 90 -0.708058 0.361388 -0.606673 0.000000 
-0.092339 0.069609 -0.507935 90 85 73 -0.101181 -0.101181 0.989709 0.000000 
-0.109584 0.055578 -0.510963 93 96 94 -0.034325 -0.319091 0.947102 0.000000 
-0.155790 -0.011527 -0.513001 145 136 125 -0.732125 0.592518 -0.336031 0.000000 
-0.158803 -0.015092 -0.513089 132 127 120 -0.748940 0.411343 -0.519505 0.000000 
-0.172351 -0.034259 -0.514353 94 83 66 -0.842328 0.527358 0.111251 0.000000 
-0.157327 -0.009002 -0.515300 94 77 52 0.814383 -0.562206 0.143889 0.000000 
-0.108404 0.056036 -0.507047 136 125 111 0.027207 -0.369242 0.928935 0.000000 
-0.116875 0.044613 -0.507506 102 93 79 0.329101 -0.347300 0.878109 0.000000 
-0.155042 -0.007149 -0.511004 112 101 82 -0.057026 0.092808 0.994050 0.000000 
-0.194818 -0.073901 -0.513157 138 131 121 0.077117 -0.109345 0.991008 0.000000 
-0.099845 0.064172 -0.506550 116 112 98 0.038593 -0.176591 0.983527 0.000000 
-0.144433 0.007728 -0.509746 117 110 100 0.555487 -0.565618 0.609516 0.000000 
-0.114989 0.046336 -0.506978 145 127 108 0.541279 -0.350619 0.764253 0.000000 
-0.123367 0.033647 -0.510671 120 117 109 -0.845060 0.511755 -0.154854 0.000000 
-0.173692 -0.039209 -0.511997 105 99 81 0.149154 -0.131896 0.979978 0.000000 
-0.154966 -0.007631 -0.510855 138 133 119 0.274681 0.038530 -0.960763 0.000000 
-0.146763 0.003670 -0.509867 160 150 141 -0.285295 0.262357 -0.921833 0.000000 
-0.134424 0.022388 -0.508102 114 110 94 0.264659 -0.030774 0.963851 0.000000 
-0.178469 -0.050610 -0.513054 87 81 69 0.824298 -0.346490 0.447747 0.000000 
-0.093699 0.073358 -0.507117 107 97 79 0.022327 0.910140 0.413700 0.000000 
-0.084449 0.083326 -0.506914 133 126 117 -0.162278 -0.028773 0.986326 0.000000 
-0.173150 -0.039426 -0.512708 124 110 88 0.389707 -0.151631 0.908370 0.000000 
-0.163766 -0.022530 -0.513508 91 82 69 0.144817 -0.501739 0.852811 0.000000 
-0.147804 0.000797 -0.511291 136 128 114 0.799397 -0.485406 0.354042 0.000000 
-0.135065 0.021445 -0.508788 122 115 102 0.716169 0.493509 -0.493509 0.000000 
-0.094236 0.070046 -0.507968 76 69 57 -0.773931 0.255884 -0.579271 0.000000 
-0.121653 0.040185 -0.507753 148 135 122 -0.662697 0.562034 0.494925 0.000000 
-0.197326 -0.076938 -0.513807 120 107 89 0.444805 -0.247451 -0.860765 0.000000 
-0.132151 0.026159 -0.509854 134 122 106 -0.688324 0.534247 0.490703 0.000000 
-0.164569 -0.024392 -0.514305 81 77 68 -0.803324 0.591395 -0.070166 0.000000 
-0.163766 -0.022530 -0.513508 91 82 69 0.144817 -0.501739 0.852811 0.000000 
-0.193738 -0.072933 -0.512844 157 144 127 -0.423491 0.300293 -0.854681 0.000000 
-0.091644 0.073661 -0.508822 74 70 63 -0.785120 0.409557 0.464597 0.000000 
-0.139442 0.014291 -0.510562 131 123 115 0.965696 -0.259673 -0.001197 0.000000 
-0.121213 0.037471 -0.509194 106 103 97 0.721412 -0.689733 0.061918 0.000000 
-0.128068 0.030628 -0.508013 140 134 126 -0.210881 0.459151 -0.862965 0.000000 
-0.197695 -0.076460 -0.514141 112 95 78 -0.787186 0.383087 0.483303 0.000000 
-0.101006 0.061063 -0.508081 111 108 101 -0.524421 0.591870 -0.612105 0.000000 
-0.180894 -0.048491 -0.514903 94 87 68 0.824587 -0.480357 -0.298854 0.000000 
-0.174557 -0.041900 -0.513093 157 149 137 0.455371 -0.311405 0.834065 0.000000 
-0.149517 0.001731 -0.510904 102 92 70 -0.315709 0.376716 0.870869 0.000000 
-0.100038 0.063761 -0.507617 81 74 63 -0.536442 0.516262 -0.667610 0.000000 
-0.163775 -0.022891 -0.511885 145 140 131 -0.612296 0.416494 -0.672032 0.000000 
-0.089648 0.077368 -0.509281 77 70 54 -0.573393 0.217920 0.789767 0.000000 
-0.066648 0.103269 -0.507547 110 106 88 0.650200 -0.707712 0.276375 0.000000 
-0.186863 -0.066213 -0.514060 85 76 61 0.480763 -0.073856 0.873735 0.000000 
-0.108141 0.056900 -0.507467 86 74 54 0.952311 -0.041735 -0.302261 0.000000 
-0.152952 -0.008803 -0.514175 113 111 106 0.841585 -0.423134 0.335697 0.000000 
-0.103886 0.058088 -0.508756 101 91 75 0.632034 -0.772486 -0.061627 0.000000 
-0.109153 0.055710 -0.508098 103 91 75 -0.473685 0.574113 0.667845 0.000000 
-0.138077 0.017034 -0.508975 104 92 74 0.426901 -0.682710 0.593011 0.000000 
-0.105049 0.057674 -0.506674 128 109 87 0.492249 -0.423563 0.760451 0.000000 
-0.186055 -0.056313 -0.514757 88 78 63 -0.822618 0.445386 0.353456 0.000000 
-0.121536 0.038792 -0.507473 130 125 116 0.106377 -0.072062 0.991711 0.000000 
-0.185291 -0.062457 -0.513474 102 96 86 0.304767 -0.467309 0.829903 0.000000 
-0.192790 -0.072714 -0.513603 166 155 138 0.502422 -0.348324 0.791355 0.000000 
-0.102441 0.061076 -0.507508 121 115 103 -0.664495 0.434670 -0.607872 0.000000 
-0.192224 -0.072125 -0.513994 122 114 103 0.746185 -0.606176 0.275245 0.000000 
-0.111751 0.052673 -0.506863 129 125 111 -0.131173 0.274272 -0.952664 0.000000 
-0.140446 0.011857 -0.514452 103 98 86 0.549357 -0.230575 -0.803145 0.000000 
-0.136412 0.018922 -0.510196 117 111 102 0.955520 -0.253831 0.150172 0.000000 
-0.146510 0.005206 -0.512317 141 131 118 -0.321291 0.728152 0.605448 0.000000 
-0.139333 0.015512 -0.509371 118 115 109 -0.460366 -0.036451 0.886981 0.000000 
-0.180203 -0.047751 -0.515225 84 74 57 0.847462 -0.525962 0.071914 0.000000 
-0.175231 -0.040094 -0.512562 146 140 126 -0.223154 0.116040 0.967852 0.000000 
-0.149296 -0.001708 -0.511081 93 83 64 -0.617193 0.563083 -0.549555 0.000000 
-0.154568 -0.003560 -0.513720 68 57 39 -0.676415 0.729467 -0.101683 0.000000 
-0.137894 0.014480 -0.513087 123 120 115 0.662771 -0.694712 0.279482 0.000000 
-0.123074 0.036576 -0.507825 141 130 117 0.477670 -0.371521 0.796117 0.000000 
-0.167809 -0.031232 -0.516123 97 91 85 0.928878 -0.366002 -0.056816 0.000000 
-0.177246 -0.044162 -0.513057 113 103 88 0.602955 -0.562421 -0.565798 0.000000 
-0.183942 -0.055541 -0.513406 120 105 87 0.323098 -0.111275 -0.939801 0.000000 
-0.194831 -0.076104 -0.513896 150 143 125 -0.420768 0.466256 -0.778177 0.000000 
-0.128631 0.030650 -0.508652 146 133 119 -0.971219 -0.237088 -0.022866 0.000000 
-0.157681 -0.015680 -0.515183 124 121 115 0.508521 -0.177460 0.842564 0.000000 
-0.136152 0.022039 -0.511091 95 86 64 0.840278 -0.470248 -0.269814 0.000000 
-0.168979 -0.032631 -0.517272 104 98 84 -0.304992 0.302045 0.903188 0.000000 
-0.081058 0.083914 -0.508079 139 134 129 0.652226 -0.544365 0.527511 0.000000 
-0.177981 -0.048775 -0.513465 173 160 147 0.594111 -0.577185 0.560259 0.000000 
-0.185267 -0.062528 -0.513522 126 122 105 0.302039 -0.510777 0.804909 0.000000 
-0.194919 -0.078506 -0.514983 132 124 101 0.429398 -0.394280 0.812503 0.000000 
-0.127773 0.031690 -0.509020 102 92 78 -0.991423 -0.129895 -0.014433 0.000000 
-0.117295 0.040530 -0.505992 105 99 80 -0.231192 -0.125283 0.964808 0.000000 
-0.122053 0.036887 -0.508794 117 115 113 0.577233 -0.813827 0.066988 0.000000 
-0.139928 0.012439 -0.511900 123 114 95 -0.843983 0.425892 -0.326049 0.000000 
-0.156560 -0.009162 -0.512749 99 90 73 0.775274 -0.631551 0.009674 0.000000 
-0.173035 -0.035299 -0.514974 88 77 56 0.890415 -0.455101 -0.006596 0.000000 
-0.132602 0.026712 -0.508704 136 131 123 -0.690042 0.721603 0.055949 0.000000 
-0.170755 -0.032075 -0.512587 118 111 100 0.269314 0.307163 -0.912755 0.000000 
-0.153826 -0.008782 -0.511971 125 119 105 -0.521541 0.632938 -0.572176 0.000000 
-0.176463 -0.046911 -0.513623 158 146 129 -0.480859 0.477554 -0.735334 0.000000 
-0.113102 0.045854 -0.508119 122 118 109 -0.158613 -0.023963 -0.987050 0.000000 
-0.186105 -0.062980 -0.513304 142 137 121 0.287944 -0.201700 0.936165 0.000000 
-0.168302 -0.027513 -0.512862 153 136 122 -0.725943 0.424983 0.540737 0.000000 
-0.138424 0.014880 -0.509391 133 126 115 0.410532 -0.320680 0.853597 0.000000 
-0.087517 0.077921 -0.507712 92 89 84 0.644607 -0.607773 0.463782 0.000000 
-0.102658 0.060171 -0.508726 64 56 43 -0.724905 0.666913 0.172451 0.000000 
-0.161857 -0.017548 -0.511726 159 146 132 0.230126 -0.373772 -0.898519 0.000000 
-0.165424 -0.022587 -0.512013 136 128 114 0.121291 -0.344795 0.930809 0.000000 
-0.175029 -0.043327 -0.512880 146 143 137 0.585187 -0.211532 0.782822 0.000000 
-0.138664 0.015318 -0.509427 135 122 109 0.237484 -0.320964 0.916833 0.000000 
-0.178669 -0.050884 -0.514435 150 139 126 -0.609322 0.174743 -0.773429 0.000000 
-0.151336 -0.005171 -0.510686 119 114 105 0.544798 -0.645999 0.534678 0.000000 
-0.148954 -0.001118 -0.510591 126 116 102 0.491886 -0.575825 0.653050 0.000000 
-0.166242 -0.024537 -0.513507 107 97 80 0.824794 -0.502923 -0.258425 0.000000 
-0.177915 -0.045781 -0.512281 155 140 125 -0.120041 -0.203438 0.971701 0.000000 
-0.070208 0.099636 -0.506052 142 134 122 -0.117769 0.284498 -0.951415 0.000000 
-0.098684 0.064839 -0.507849 110 108 104 -0.837539 0.439904 -0.324057 0.000000 
-0.112890 0.048263 -0.507535 138 133 124 -0.780701 0.482055 -0.397654 0.000000 
-0.095239 0.069571 -0.510687 101 93 77 0.484837 -0.422804 -0.765618 0.000000 
-0.149509 -0.003755 -0.514211 115 107 91 0.762897 -0.640367 -0.088980 0.000000 
-0.093697 0.068871 -0.509113 105 94 69 0.426384 -0.562429 -0.708428 0.000000 
-0.154980 -0.014630 -0.515378 151 125 105 0.285233 -0.587995 0.756904 0.000000 
-0.164868 -0.024618 -0.512659 135 128 112 0.348244 -0.382295 0.855907 0.000000 
-0.134304 0.022597 -0.508430 121 113 101 0.450863 -0.434587 -0.779652 0.000000 
-0.179790 -0.055228 -0.513600 77 72 57 -0.582909 0.397963 -0.708408 0.000000 
-0.072800 0.094739 -0.508469 109 98 77 0.011251 -0.035799 -0.999296 0.000000 
-0.140540 0.012394 -0.511078 106 95 75 -0.768612 0.636440 -0.064650 0.000000 
-0.124461 0.035877 -0.509692 95 87 72 -0.380188 0.778172 0.499906 0.000000 
-0.100782 0.064316 -0.510028 93 96 95 -0.176323 0.309607 -0.934374 0.000000 
-0.123633 0.034136 -0.511134 95 94 88 -0.863875 0.496268 0.086246 0.000000 
-0.103231 0.062233 -0.508281 79 67 46 -0.661332 0.654768 0.365948 0.000000 
-0.156752 -0.008584 -0.510799 142 135 120 -0.523038 0.105184 0.845794 0.000000 
-0.138306 0.016993 -0.508601 106 92 70 0.775999 -0.597750 0.201299 0.000000 
-0.075259 0.093074 -0.507749 99 90 73 0.378668 -0.288149 0.879534 0.000000 
-0.140065 0.013295 -0.509221 122 117 103 0.188186 -0.308068 0.932567 0.000000 
-0.101331 0.063572 -0.506747 140 135 127 0.146100 -0.007807 0.989239 0.000000 
-0.167906 -0.026765 -0.514534 89 77 57 0.776929 -0.622418 0.094747 0.000000 
-0.102555 0.062957 -0.506437 128 118 103 0.059528 -0.053034 0.996817 0.000000 
-0.137717 0.016015 -0.510703 134 120 105 -0.581171 0.641815 -0.500313 0.000000 
-0.074511 0.093701 -0.506737 116 108 91 -0.335079 0.188040 -0.923235 0.000000 
-0.179090 -0.047992 -0.517230 104 100 93 0.105035 -0.265829 0.958281 0.000000 
-0.196082 -0.082235 -0.515662 100 97 88 0.901958 -0.371566 0.220025 0.000000 
-0.185750 -0.061607 -0.513100 163 153 134 0.158221 -0.191666 0.968623 0.000000 
-0.131837 0.026812 -0.509872 94 84 62 0.817326 -0.545388 -0.185825 0.000000 
-0.136976 0.019699 -0.508565 139 129 121 -0.856817 -0.504936 0.104420 0.000000 
-0.164019 -0.022590 -0.512046 164 156 142 -0.119788 0.370378 -0.921125 0.000000 
-0.170696 -0.036622 -0.514242 96 95 92 -0.767374 0.551802 -0.326576 0.000000 
-0.153363 -0.003777 -0.510901 151 140 128 -0.784692 0.613539 0.088477 0.000000 
-0.130537 0.026356 -0.510474 105 103 94 0.139083 -0.963184 0.230072 0.000000 
-0.113779 0.050304 -0.508043 116 102 85 0.755544 -0.431037 -0.493316 0.000000 
-0.113567 0.050371 -0.507771 129 114 97 0.848518 -0.117087 -0.516050 0.000000 
-0.067595 0.103515 -0.506727 116 114 108 0.569280 -0.532117 0.626715 0.000000 
-0.186914 -0.063664 -0.513223 112 100 81 0.060685 -0.236548 0.969723 0.000000 
-0.115755 0.047685 -0.507328 112 105 96 0.246348 -0.604102 -0.757874 0.000000 
-0.116596 0.044504 -0.510085 74 74 69 -0.751459 0.528804 0.394557 0.000000 
-0.112314 0.049243 -0.508114 84 75 60 0.792932 -0.498186 0.350812 0.000000 
-0.119547 0.040368 -0.511211 89 82 67 0.562429 -0.708428 -0.426384 0.000000 
-0.133722 0.020875 -0.511964 127 116 102 0.765765 -0.481664 0.426150 0.000000 
-0.165559 -0.025119 -0.512218 120 110 94 -0.080267 0.161731 -0.983565 0.000000 
-0.199883 -0.078740 -0.514101 130 116 92 0.004103 0.813727 -0.581233 0.000000 
-0.187037 -0.064580 -0.513633 143 133 118 -0.116638 0.128662 -0.984805 0.000000 
-0.147746 0.001805 -0.511416 123 120 114 0.832367 -0.354031 0.426411 0.000000 
-0.169529 -0.035306 -0.514714 104 104 100 0.795246 -0.532799 0.289324 0.000000 
-0.116559 0.045231 -0.506824 129 123 114 -0.108620 0.383609 -0.917086 0.000000 
-0.197114 -0.090290 -0.516443 93 84 68 -0.226101 -0.335551 0.914485 0.000000 
-0.155506 -0.004473 -0.513378 90 84 71 0.920201 -0.353707 -0.167694 0.000000 
-0.200554 -0.083016 -0.514075 115 97 72 -0.115157 0.546629 0.829419 0.000000 
-0.191710 -0.071238 -0.515924 97 92 82 0.820071 -0.571982 -0.017918 0.000000 
-0.115867 0.048492 -0.507672 120 109 96 -0.422414 0.858653 0.290314 0.000000 
-0.152820 -0.003966 -0.510074 124 114 96 -0.332079 0.029264 0.942798 0.000000 
-0.172266 -0.038766 -0.516713 109 103 91 0.499505 -0.062612 -0.864046 0.000000 
-0.133917 0.022687 -0.508119 115 110 101 -0.184632 -0.005734 0.982791 0.000000 
-0.158124 -0.011085 -0.510842 109 103 92 -0.275584 0.490445 0.826751 0.000000 
-0.154454 -0.008236 -0.510396 142 138 130 -0.096949 -0.108629 0.989344 0.000000 
-0.182891 -0.054198 -0.513085 124 118 107 -0.091954 0.144499 0.985223 0.000000 
-0.134262 0.023946 -0.511124 82 72 52 -0.703232 0.618388 0.350800 0.000000 
-0.198556 -0.085461 -0.514783 147 134 108 0.384942 -0.645976 0.659193 0.000000 
-0.161503 -0.017793 -0.511482 156 143 125 0.230209 -0.631117 -0.740740 0.000000 
-0.153204 -0.003001 -0.510282 136 129 111 0.203332 -0.808741 -0.551901 0.000000 
-0.190293 -0.068710 -0.513302 159 150 133 0.263883 -0.174569 0.948626 0.000000 
-0.119057 0.040574 -0.509788 74 73 67 -0.665605 0.746200 -0.012506 0.000000 
-0.150390 -0.002682 -0.510363 116 111 96 0.659649 -0.254685 0.707106 0.000000 
-0.091434 0.072932 -0.504632 78 72 48 -0.147743 -0.035504 0.988388 0.000000 
-0.118273 0.041215 -0.509520 88 87 80 -0.827519 0.555025 -0.084616 0.000000 
-0.198599 -0.088349 -0.515536 137 127 108 -0.276908 0.125867 0.952617 0.000000 
-0.168132 -0.032645 -0.515980 94 91 88 -0.885734 0.452020 0.105612 0.000000 
-0.077367 0.091207 -0.508629 109 112 109 0.038006 -0.612327 -0.789691 0.000000 
-0.076791 0.091510 -0.507001 149 137 125 0.234053 -0.201584 0.951096 0.000000 
-0.180254 -0.048706 -0.512262 129 122 104 -0.152949 -0.057210 -0.986577 0.000000 
-0.134486 0.021639 -0.508314 96 89 76 0.334794 -0.362311 0.869853 0.000000 
-0.195407 -0.078995 -0.516770 109 106 99 -0.958039 0.258186 0.124506 0.000000 
-0.108125 0.058032 -0.507920 85 72 44 0.751471 -0.656275 -0.067791 0.000000 
-0.114693 0.045185 -0.507653 100 97 89 0.505245 -0.501910 0.702007 0.000000 
-0.179168 -0.047860 -0.517576 82 76 61 0.105035 -0.265829 0.958281 0.000000 
-0.158745 -0.011984 -0.511090 131 127 119 -0.172355 -0.062999 0.983018 0.000000 
-0.175428 -0.042772 -0.512398 112 107 95 -0.447379 0.081719 -0.890603 0.000000 
-0.146211 0.004810 -0.509842 142 132 121 0.199243 -0.239905 0.950131 0.000000 
-0.179437 -0.050310 -0.513828 127 124 120 0.616611 -0.304281 0.726088 0.000000 
-0.136270 0.019241 -0.508190 102 95 74 -0.290464 0.211884 0.933132 0.000000 
-0.064628 0.103811 -0.507665 130 124 113 0.411146 -0.291929 -0.863560 0.000000 
-0.181932 -0.051362 -0.512931 154 137 119 -0.635584 0.015299 0.771880 0.000000 
-0.084949 0.085116 -0.508076 108 103 88 -0.763317 0.615875 0.195053 0.000000 
-0.093519 0.071484 -0.509566 92 82 65 0.705013 -0.538343 -0.461675 0.000000 
-0.081498 0.085274 -0.507440 126 116 98 0.576718 -0.427137 0.696383 0.000000 
-0.192959 -0.069157 -0.515678 98 75 48 0.877910 -0.463936 -0.118482 0.000000 
-0.149885 0.001895 -0.512952 74 65 48 0.725578 -0.496448 -0.476524 0.000000 
-0.171550 -0.036927 -0.513020 105 96 84 -0.560237 0.411502 -0.718888 0.000000 
-0.092129 0.074946 -0.508267 104 94 79 -0.870871 0.338247 -0.356613 0.000000 
-0.111195 0.053614 -0.506679 126 119 103 -0.147834 -0.170578 0.974191 0.000000 
-0.175921 -0.047073 -0.514013 111 103 87 -0.553797 0.510032 -0.658161 0.000000 
-0.096936 0.071122 -0.507489 117 115 108 -0.290544 0.270307 0.917888 0.000000 
-0.172048 -0.034386 -0.512546 138 134 122 0.215606 -0.394544 -0.893224 0.000000 
-0.162575 -0.020447 -0.511813 108 99 84 0.210154 0.088290 0.973673 0.000000 
-0.181197 -0.057727 -0.513585 136 124 106 -0.914390 0.003880 0.404815 0.000000 
-0.184907 -0.059313 -0.512732 153 147 132 0.069327 0.026664 0.997238 0.000000 
-0.198187 -0.083439 -0.514559 121 107 84 0.513957 -0.023176 0.857503 0.000000 
-0.105861 0.056296 -0.507489 122 118 109 0.682935 -0.670080 0.290850 0.000000 
-0.083258 0.088238 -0.506087 113 105 87 -0.061999 0.207880 0.976187 0.000000 
-0.082757 0.084662 -0.507331 100 94 78 -0.548381 0.227076 -0.804807 0.000000 
-0.156881 -0.009772 -0.510411 124 122 116 -0.304116 0.232727 -0.923770 0.000000 
-0.169297 -0.028531 -0.512596 141 131 116 -0.441839 0.359489 0.821916 0.000000 
-0.199565 -0.084287 -0.513820 110 96 66 0.167821 -0.256431 0.951882 0.000000 
-0.173131 -0.039700 -0.512693 114 104 90 0.356005 -0.139909 0.923951 0.000000 
-0.168532 -0.031532 -0.513307 165 157 144 0.690440 -0.412277 0.594407 0.000000 
-0.154216 -0.008922 -0.511623 135 125 107 0.608761 -0.365913 0.703931 0.000000 
-0.140646 0.012391 -0.509761 98 88 70 0.502241 -0.742658 0.442960 0.000000 
-0.162482 -0.021044 -0.512144 106 103 96 0.020004 0.208282 0.977864 0.000000 
-0.155386 -0.010093 -0.511798 150 141 127 -0.667845 0.473685 -0.574113 0.000000 
-0.162718 -0.020793 -0.511809 149 143 130 -0.017516 0.199678 0.979705 0.000000 
-0.106295 0.057791 -0.506596 137 131 118 0.158316 0.097890 0.982524 0.000000 
-0.089808 0.079248 -0.507167 113 104 88 0.030615 -0.255941 -0.966208 0.000000 
-0.119828 0.043450 -0.509384 113 100 88 -0.823792 0.461512 0.329202 0.000000 
-0.177934 -0.048718 -0.513089 156 138 120 0.557562 -0.530611 0.638417 0.000000 
-0.154683 -0.007185 -0.510715 109 105 95 -0.371132 0.014126 0.928473 0.000000 
-0.157597 -0.008513 -0.511717 129 119 105 0.997142 -0.071453 0.024529 0.000000 
-0.165165 -0.024528 -0.511293 109 100 73 0.200407 -0.224618 0.953616 0.000000 
-0.140781 0.013925 -0.508986 119 115 106 0.128215 0.001096 0.991746 0.000000 
-0.178572 -0.047283 -0.512767 134 131 125 0.289875 -0.208654 0.934043 0.000000 
-0.163447 -0.025710 -0.514424 128 113 93 -0.635807 0.578466 -0.511006 0.000000 
-0.147278 0.003461 -0.509878 154 146 135 -0.007675 -0.123896 0.992266 0.000000 
-0.134313 0.024664 -0.510125 90 80 56 0.694788 -0.715095 -0.076876 0.000000 
-0.194151 -0.073700 -0.513029 160 150 134 0.445218 -0.338240 0.829081 0.000000 
-0.175598 -0.042664 -0.512476 117 107 91 0.365456 -0.076304 0.927696 0.000000 
-0.131696 0.026595 -0.509851 88 80 65 0.697355 -0.437719 -0.567537 0.000000 
-0.178654 -0.041680 -0.514071 68 56 37 0.767863 -0.640577 -0.006918 0.000000 
-0.162308 -0.022063 -0.515356 100 97 91 -0.644578 0.520038 -0.560429 0.000000 
-0.153418 -0.003753 -0.514928 76 63 43 -0.610888 0.732745 -0.299832 0.000000 
-0.123504 0.036988 -0.511915 90 79 60 -0.768465 0.575160 0.280450 0.000000 
-0.117564 0.042308 -0.508375 135 124 105 0.660895 -0.731105 0.169421 0.000000 
-0.163833 -0.024254 -0.512606 146 130 115 -0.788149 0.378763 -0.485139 0.000000 
-0.107151 0.057683 -0.506864 97 90 77 -0.206028 0.241504 0.948277 0.000000 
-0.115727 0.046415 -0.511131 91 91 81 0.431046 -0.523531 -0.734925 0.000000 
-0.143412 0.009643 -0.509376 107 97 80 -0.040997 0.267098 0.962797 0.000000 
-0.188679 -0.068565 -0.513727 106 103 96 0.107696 -0.423792 0.899334 0.000000 
-0.168426 -0.032240 -0.514064 96 94 87 0.784972 -0.386821 0.483931 0.000000 
-0.196061 -0.078277 -0.514029 118 109 92 0.511616 -0.521681 0.682714 0.000000 
-0.166665 -0.028906 -0.513181 93 90 82 -0.650783 0.265723 -0.711247 0.000000 
-0.162005 -0.021228 -0.511560 112 105 95 -0.665213 0.172802 -0.726382 0.000000 
-0.116749 0.044604 -0.507401 100 91 75 0.329101 -0.347300 0.878109 0.000000 
-0.120795 0.038532 -0.510490 78 77 71 -0.758988 0.559169 0.333568 0.000000 
-0.187690 -0.069380 -0.514887 128 116 103 -0.081215 -0.178188 0.980639 0.000000 
-0.157617 -0.008745 -0.515899 92 84 66 0.830746 -0.528385 0.175130 0.000000 
-0.109950 0.051966 -0.507272 125 112 94 -0.657721 0.272325 -0.702312 0.000000 
-0.132765 0.024025 -0.507898 139 135 127 0.140300 -0.125660 0.982103 0.000000 
-0.151546 -0.005321 -0.511313 115 106 92 0.636945 -0.650249 0.414097 0.000000 
-0.093017 0.071418 -0.507000 95 90 77 0.322351 -0.457582 0.828679 0.000000 
-0.129207 0.029313 -0.507743 157 148 133 0.091309 0.176531 -0.980051 0.000000 
-0.197584 -0.078616 -0.513368 117 107 87 -0.235759 -0.476080 0.847210 0.000000 
-0.160306 -0.016170 -0.517678 101 94 81 -0.178491 -0.102171 0.978623 0.000000 
-0.124926 0.034692 -0.507664 119 112 95 0.061798 0.199934 -0.977859 0.000000 
-0.090625 0.076743 -0.507615 127 115 98 0.197967 -0.179612 -0.963612 0.000000 
-0.185138 -0.059144 -0.512956 118 105 84 -0.074296 0.001046 -0.997236 0.000000 
-0.132450 0.023477 -0.509284 120 117 112 -0.534678 0.842224 -0.069127 0.000000 
-0.149834 0.002700 -0.513517 70 60 43 -0.742273 0.556297 0.373584 0.000000 
-0.077102 0.092648 -0.507039 114 102 87 0.361264 -0.373668 0.854319 0.000000 
-0.170469 -0.031765 -0.515674 75 65 48 0.835164 -0.549986 0.004074 0.000000 
-0.151162 -0.005248 -0.512641 112 102 82 0.693438 -0.677642 0.244836 0.000000 
-0.164710 -0.024791 -0.513919 91 89 83 0.804228 -0.591469 -0.058154 0.000000 
-0.160050 -0.016260 -0.511473 160 151 135 -0.529223 0.309905 -0.789862 0.000000 
-0.188719 -0.062811 -0.513238 137 130 114 -0.184403 0.192250 0.963865 0.000000 
-0.150481 0.001323 -0.510368 139 134 128 -0.288861 0.604852 0.742101 0.000000 
-0.125366 0.034105 -0.507893 107 99 85 -0.045424 -0.244307 0.968634 0.000000 
-0.125999 0.031187 -0.512018 87 76 60 0.767868 -0.570734 -0.290931 0.000000 
-0.165826 -0.025501 -0.512316 163 156 142 0.018810 -0.120607 0.992522 0.000000 
-0.179823 -0.050825 -0.514264 107 101 94 -0.719726 0.136733 -0.680660 0.000000 
-0.104633 0.059362 -0.507015 130 126 114 0.403674 -0.347565 0.846313 0.000000 
-0.153960 -0.008492 -0.512035 114 108 99 0.639720 -0.485247 0.596065 0.000000 
-0.077266 0.091199 -0.506863 142 130 117 -0.094778 -0.115840 0.988736 0.000000 
-0.165375 -0.022854 -0.513361 104 90 71 0.711606 -0.593279 -0.376346 0.000000 
-0.097698 0.066811 -0.507342 91 86 75 0.511984 -0.341858 0.788039 0.000000 
-0.140372 0.012484 -0.511253 95 87 72 0.816349 -0.576329 0.037678 0.000000 
-0.071621 0.098114 -0.507033 110 104 89 -0.412355 0.747495 -0.520782 0.000000 
-0.113461 0.048117 -0.509471 69 67 62 -0.819595 0.431282 0.377173 0.000000 
-0.186454 -0.058389 -0.512945 136 128 112 -0.241770 0.390095 0.888467 0.000000 
-0.110496 0.046711 -0.505951 78 78 66 -0.262181 0.102031 0.959610 0.000000 
-0.085305 0.082068 -0.507114 110 103 89 0.124971 -0.230617 0.964986 0.000000 
-0.199006 -0.082884 -0.514205 115 98 76 -0.270482 -0.369111 -0.889155 0.000000 
-0.105788 0.059855 -0.506531 130 125 116 0.669264 -0.740920 0.055891 0.000000 
-0.119553 0.038725 -0.506526 106 97 78 0.198423 -0.164704 0.966178 0.000000 
-0.072614 0.095733 -0.506609 113 102 83 0.661148 -0.210012 -0.720263 0.000000 
-0.133046 0.024116 -0.508373 146 136 126 0.269135 -0.330904 0.904471 0.000000 
-0.116326 0.047884 -0.508659 112 101 89 0.723530 -0.634480 -0.271920 0.000000 
-0.090840 0.073999 -0.508470 103 96 81 -0.791785 0.569529 0.220712 0.000000 
-0.137630 0.017409 -0.508978 113 109 101 0.665582 -0.598857 0.445389 0.000000 
-0.150473 -0.001428 -0.510269 109 100 86 -0.175304 -0.099298 0.979494 0.000000 
-0.083511 0.086024 -0.506770 116 108 94 0.017841 0.059820 0.998050 0.000000 
-0.132981 0.023780 -0.508399 116 112 105 0.144862 -0.118080 0.982381 0.000000 
-0.175101 -0.046642 -0.514917 109 108 101 0.821219 -0.511909 -0.252088 0.000000 
-0.137282 0.017633 -0.510350 117 109 105 0.666532 -0.743604 0.052809 0.000000 
-0.164643 -0.020535 -0.511440 139 135 129 0.312154 -0.143127 0.939188 0.000000 
-0.124055 0.034892 -0.508356 111 106 104 -0.721526 0.505898 -0.472724 0.000000 
-0.165172 -0.026296 -0.514266 85 75 56 -0.924178 0.374232 -0.076456 0.000000 
-0.129055 0.028720 -0.508261 103 94 80 0.042997 -0.360916 0.931607 0.000000 
-0.110783 0.050483 -0.508268 118 109 95 0.395867 -0.657570 0.641007 0.000000 
-0.150689 -0.002466 -0.510178 136 130 118 0.290088 -0.101072 0.951648 0.000000 
-0.101326 0.062926 -0.507207 99 92 79 0.242485 -0.360053 0.900868 0.000000 
-0.149791 0.002778 -0.510716 139 131 118 0.717683 -0.255071 -0.647974 0.000000 
-0.135859 0.018921 -0.509837 126 122 112 0.842224 -0.534678 -0.069127 0.000000 
-0.092195 0.075263 -0.506414 129 119 106 0.177690 -0.236475 0.955252 0.000000 
-0.148450 -0.001391 -0.512444 128 122 112 -0.820144 0.396536 -0.412461 0.000000 
-0.183974 -0.060352 -0.513321 112 105 89 0.357781 -0.265738 0.895196 0.000000 
-0.098600 0.067339 -0.507011 115 108 91 -0.267098 -0.040997 0.962797 0.000000 
-0.183697 -0.059582 -0.513428 106 97 80 -0.617985 0.463907 -0.634732 0.000000 
-0.088431 0.079973 -0.506555 128 124 116 0.003256 -0.116148 -0.993227 0.000000 
-0.145940 0.003501 -0.512429 105 95 76 -0.773740 0.447955 -0.447955 0.000000 
-0.151314 0.000346 -0.512118 94 87 75 0.843735 -0.536675 -0.009511 0.000000 
-0.128697 0.030736 -0.512089 74 64 47 -0.874174 -0.059383 -0.481969 0.000000 
-0.165192 -0.022711 -0.515998 80 71 53 0.218493 -0.197045 0.955737 0.000000 
-0.195809 -0.080632 -0.514933 136 128 104 0.679545 0.058903 0.731265 0.000000 
-0.185194 -0.058423 -0.513086 124 107 85 0.124048 -0.252013 -0.959740 0.000000 
-0.153978 -0.007307 -0.510598 112 108 99 0.185335 -0.310749 0.932248 0.000000 
-0.076637 0.092326 -0.506899 131 131 127 0.359059 -0.331557 0.872437 0.000000 
-0.118858 0.041199 -0.507340 101 91 72 -0.435667 0.387792 -0.812288 0.000000 
-0.105900 0.056840 -0.507333 83 75 60 0.594493 -0.510287 0.621439 0.000000 
-0.143977 0.004812 -0.509548 95 89 73 0.075545 0.018088 0.996978 0.000000 
-0.181279 -0.049500 -0.512562 136 129 113 0.027609 -0.226877 0.973532 0.000000 
-0.119614 0.039350 -0.510996 90 90 85 -0.714936 0.600415 0.358286 0.000000 
-0.111649 0.052465 -0.506785 131 129 124 -0.010003 0.138924 -0.990252 0.000000 
-0.169922 -0.030053 -0.513323 113 99 81 -0.933330 0.268878 0.237908 0.000000 
-0.135384 0.021495 -0.507918 107 98 79 0.223736 -0.099859 0.969521 0.000000 
-0.103790 0.057780 -0.508916 120 116 107 -0.690925 0.648855 0.318764 0.000000 
-0.118588 0.043317 -0.507417 103 90 70 -0.288195 0.574798 0.765866 0.000000 
-0.175220 -0.043256 -0.512894 161 149 133 -0.459388 0.268872 -0.846564 0.000000 
-0.091264 0.074304 -0.507003 146 139 128 0.462835 -0.369948 0.805557 0.000000 
-0.174880 -0.043648 -0.513498 110 102 87 -0.610551 0.307692 -0.729762 0.000000 
-0.145885 0.007005 -0.511342 88 77 57 0.505644 0.746113 0.433174 0.000000 
-0.102666 0.062498 -0.510809 97 91 77 -0.167257 0.167257 0.971622 0.000000 
-0.110534 0.051788 -0.507100 127 119 107 0.367278 -0.297752 0.881164 0.000000 
-0.150365 0.002993 -0.513880 85 80 69 0.721603 -0.669513 -0.176188 0.000000 
-0.132978 0.023171 -0.508086 142 136 125 0.406387 -0.299039 0.863380 0.000000 
-0.163529 -0.021926 -0.512358 164 156 141 -0.423663 0.606420 -0.672877 0.000000 
-0.153153 -0.003357 -0.510068 145 139 128 0.044910 0.466790 0.883227 0.000000 
-0.146007 0.002733 -0.513171 113 109 104 -0.693485 0.469564 -0.546432 0.000000 
-0.114728 0.048434 -0.507912 86 77 56 -0.512845 0.392367 0.763569 0.000000 
-0.139053 0.013765 -0.511953 138 127 113 0.837352 -0.378615 0.394325 0.000000 
-0.092114 0.074296 -0.506702 142 133 122 0.442260 -0.406879 0.799284 0.000000 
-0.187173 -0.066538 -0.513805 99 91 75 0.527040 -0.205044 0.824734 0.000000 
-0.078501 0.089554 -0.507005 133 131 127 0.450230 -0.466602 0.761298 0.000000 
-0.191555 -0.066695 -0.514910 105 81 55 -0.657202 0.686267 0.311646 0.000000 
-0.126118 0.035171 -0.507909 137 127 111 0.527550 -0.387088 -0.756210 0.000000 
-0.200193 -0.082930 -0.513732 112 102 82 0.048749 -0.536237 -0.842658 0.000000 
-0.192036 -0.072712 -0.515150 84 74 55 0.990194 -0.103315 -0.094028 0.000000 
-0.181713 -0.055550 -0.515209 92 92 87 -0.749810 0.610897 0.254146 0.000000 
-0.130787 0.028627 -0.507922 126 125 120 -0.030690 0.056089 0.997954 0.000000 
-0.149881 -0.001963 -0.510975 114 103 95 -0.605062 0.470976 -0.641936 0.000000 
-0.166407 -0.025370 -0.512710 118 105 88 -0.719355 0.400007 0.567911 0.000000 
-0.166075 -0.026661 -0.512441 124 111 94 0.439380 -0.148381 0.885962 0.000000 
-0.173353 -0.039307 -0.512924 163 155 143 0.112559 -0.087030 0.989826 0.000000 
-0.114677 0.046715 -0.507933 99 87 68 0.617217 -0.479310 0.623944 0.000000 
-0.165668 -0.026322 -0.514125 85 81 74 -0.895595 0.438855 -0.072913 0.000000 
-0.173138 -0.041483 -0.513888 105 96 85 -0.809922 0.458476 -0.365823 0.000000 
-0.184720 -0.060587 -0.512985 110 99 81 0.279449 -0.223279 0.933839 0.000000 
-0.082674 0.083843 -0.508698 105 105 100 0.629744 -0.388424 0.672718 0.000000 
-0.199523 -0.084198 -0.513804 107 88 64 0.129689 -0.154392 0.979461 0.000000 
-0.161304 -0.018501 -0.512132 140 135 124 -0.584948 0.419240 -0.694315 0.000000 
-0.168653 -0.031385 -0.516847 108 107 101 -0.436163 -0.055709 0.898142 0.000000 
-0.119409 0.043065 -0.507841 143 126 111 0.487083 -0.220022 -0.845187 0.000000 
-0.180826 -0.052128 -0.512673 114 106 89 0.456054 -0.332967 0.825316 0.000000 
-0.143791 0.008803 -0.509482 142 134 120 -0.572453 -0.043389 0.818789 0.000000 
-0.166866 -0.027318 -0.512273 122 108 86 -0.225903 0.188475 -0.955743 0.000000 
-0.090589 0.074490 -0.508270 125 116 102 0.756623 -0.640219 -0.132819 0.000000 
-0.167287 -0.033274 -0.513576 106 98 85 -0.176214 0.478295 -0.860339 0.000000 
-0.146661 0.004732 -0.511501 146 132 115 -0.341119 0.834721 0.432294 0.000000 
-0.082279 0.087283 -0.507787 129 119 105 -0.358869 0.067536 0.930941 0.000000 
-0.077865 0.091302 -0.506887 129 125 111 -0.270297 0.020792 0.962552 0.000000 
-0.154270 -0.010119 -0.512848 135 128 117 -0.620512 0.699100 -0.355280 0.000000 
-0.135140 0.022529 -0.507779 127 125 119 0.109176 0.165604 0.980131 0.000000 
-0.114414 0.046580 -0.508695 70 67 58 0.877993 -0.476547 -0.045060 0.000000 
-0.179392 -0.051184 -0.514897 101 95 89 0.706113 -0.052994 0.706113 0.000000 
-0.197344 -0.087529 -0.515335 91 84 70 0.094867 -0.400093 0.911551 0.000000 
-0.084356 0.084461 -0.506832 106 99 87 0.198340 -0.008119 -0.980100 0.000000 
-0.132839 0.024536 -0.508168 150 141 126 -0.217136 -0.129768 -0.967477 0.000000 
-0.195268 -0.079312 -0.514930 143 134 111 0.645603 -0.258559 0.718571 0.000000 
-0.193361 -0.072440 -0.512929 153 145 130 0.439228 -0.302648 0.845862 0.000000 
-0.130909 0.025459 -0.511266 111 108 102 -0.881955 0.265939 -0.389142 0.000000 
-0.094960 0.068646 -0.507684 122 118 109 0.553473 -0.781840 0.287045 0.000000 
-0.121131 0.040381 -0.510617 92 84 72 -0.277493 -0.810529 0.515791 0.000000 
-0.140875 0.014163 -0.508871 145 139 126 0.243352 -0.015584 0.969813 0.000000 
-0.134000 0.023909 -0.508994 98 88 67 0.152612 -0.985472 -0.074531 0.000000 
-0.181583 -0.053823 -0.513245 134 130 124 0.344618 -0.058965 0.936889 0.000000 
-0.179080 -0.047399 -0.512485 132 124 115 0.298574 -0.258187 0.918800 0.000000 
-0.190690 -0.066755 -0.513019 135 125 104 -0.158869 0.171578 0.972277 0.000000 
-0.083955 0.084844 -0.506618 129 126 116 -0.242120 -0.076525 0.967224 0.000000 
-0.159156 -0.011241 -0.514826 99 88 75 0.799535 -0.585930 0.132020 0.000000 
-0.147892 0.002007 -0.511012 94 84 66 0.562039 -0.794286 0.230699 0.000000 
-0.170418 -0.031917 -0.512493 142 131 117 -0.025406 -0.245587 0.969042 0.000000 
-0.141698 0.010310 -0.510020 133 122 107 -0.766804 0.523632 -0.371243 0.000000 
-0.137418 0.018158 -0.508872 123 116 103 -0.938853 0.248970 0.237843 0.000000 
-0.176721 -0.043121 -0.512525 90 82 66 0.007983 -0.176772 0.984219 0.000000 
-0.183952 -0.059634 -0.515212 102 101 97 -0.874740 0.448396 -0.183769 0.000000 
-0.094814 0.072598 -0.508554 103 94 78 0.831775 -0.536296 -0.143308 0.000000 
-0.169917 -0.032559 -0.512744 131 126 117 -0.160963 0.243440 -0.956466 0.000000 
-0.111038 0.053140 -0.507256 92 82 61 0.046653 0.286225 -0.957026 0.000000 
-0.078166 0.090318 -0.506952 139 132 122 0.215870 -0.104779 0.970784 0.000000 
-0.117083 0.043265 -0.507521 128 122 112 0.498973 -0.336368 0.798675 0.000000 
-0.147155 0.002675 -0.510484 125 116 102 0.434006 -0.586989 0.683435 0.000000 
-0.094996 0.069089 -0.507764 141 126 114 0.749875 -0.507027 0.424984 0.000000 
-0.180667 -0.052027 -0.513531 129 122 114 0.668182 -0.185862 0.720408 0.000000 
-0.117418 0.043265 -0.509243 80 66 47 0.820505 -0.561092 -0.109304 0.000000 
-0.146297 0.003117 -0.511487 111 103 86 -0.687660 0.696974 -0.203349 0.000000 
-0.156273 -0.009797 -0.510985 110 104 93 0.216848 -0.408619 0.886571 0.000000 
-0.193320 -0.074682 -0.513786 167 155 136 0.412816 -0.381183 0.827214 0.000000 
-0.159275 -0.011735 -0.511708 112 102 84 0.814457 -0.567918 -0.118867 0.000000 
-0.170022 -0.027694 -0.513549 124 114 99 -0.696235 0.641056 0.322962 0.000000 
-0.187556 -0.068145 -0.513403 92 85 69 0.230159 -0.103000 0.967687 0.000000 
-0.144681 0.003673 -0.509342 95 85 63 0.525302 -0.303120 -0.795095 0.000000 
-0.099271 0.066940 -0.507754 89 80 65 -0.323714 -0.795730 0.511882 0.000000 
-0.142975 0.007595 -0.513429 101 95 81 -0.971862 0.186750 -0.143556 0.000000 
-0.124603 0.032820 -0.510351 91 82 67 0.689425 -0.653904 0.311614 0.000000 
-0.157162 -0.008919 -0.511501 148 136 119 -0.664495 -0.607872 -0.434670 0.000000 
-0.158311 -0.012635 -0.516297 70 59 42 0.238700 0.154298 0.958757 0.000000 
-0.162988 -0.017996 -0.511370 140 134 124 -0.377282 0.211220 0.901690 0.000000 
-0.126972 0.028553 -0.510837 111 100 84 0.761679 -0.602149 0.239295 0.000000 
-0.157151 -0.010004 -0.512627 96 84 66 -0.807660 0.533772 0.250546 0.000000 
-0.120786 0.037948 -0.507683 125 117 106 -0.460970 0.287136 -0.839679 0.000000 
-0.149107 -0.002278 -0.511091 112 106 93 -0.645945 0.645945 -0.406829 0.000000 
-0.087035 0.078600 -0.507084 136 126 112 0.500430 -0.343746 0.794612 0.000000 
-0.152956 -0.007643 -0.513093 110 101 81 0.809922 -0.442502 0.384992 0.000000 
-0.150357 -0.002696 -0.511122 116 105 94 -0.765161 0.284748 -0.577450 0.000000 
-0.129316 0.028451 -0.508207 112 109 103 0.414854 -0.224527 0.881751 0.000000 
-0.163724 -0.023514 -0.515019 79 71 60 0.641449 -0.687150 0.341127 0.000000 
-0.124235 0.036009 -0.511059 68 56 38 0.433770 -0.794976 -0.424095 0.000000 
-0.192457 -0.067405 -0.513448 121 112 96 -0.507520 0.477568 0.717184 0.000000 
-0.149546 -0.002784 -0.512089 113 104 85 0.717294 -0.538384 0.442303 0.000000 
-0.109897 0.053114 -0.507547 104 101 94 0.351606 -0.619808 0.701577 0.000000 
-0.189835 -0.065138 -0.512955 150 139 123 0.167630 -0.106451 -0.980086 0.000000 
-0.154768 -0.007746 -0.511116 147 131 112 0.277438 -0.003635 -0.960737 0.000000 
-0.186600 -0.064081 -0.513474 154 146 130 0.120276 -0.139714 0.982860 0.000000 
-0.167575 -0.026141 -0.513746 96 83 63 -0.761489 0.648164 -0.004146 0.000000 
-0.141681 0.010971 -0.510234 124 116 107 0.786334 -0.541696 0.297059 0.000000 
-0.107289 0.057765 -0.506386 131 119 100 -0.063337 0.037573 0.997285 0.000000 
-0.184744 -0.060261 -0.512847 102 91 71 0.206652 -0.101447 0.973141 0.000000 
-0.120764 0.039074 -0.507770 128 126 123 0.463430 -0.333733 0.820887 0.000000 
-0.159256 -0.016762 -0.514341 138 131 121 -0.767807 0.563484 -0.304888 0.000000 
-0.157115 -0.014186 -0.515619 68 59 43 0.757393 -0.455093 0.468237 0.000000 
-0.076956 0.089003 -0.506517 110 106 94 -0.437155 0.895127 0.087431 0.000000 
-0.125448 0.031638 -0.512231 105 93 76 0.658594 -0.618578 -0.428503 0.000000 
-0.193106 -0.074481 -0.513883 155 146 128 0.418676 -0.162579 0.893464 0.000000 
-0.195160 -0.079574 -0.517312 127 118 102 -0.741660 0.551743 0.381472 0.000000 
-0.172573 -0.040230 -0.513156 126 123 116 -0.745208 0.501740 -0.439229 0.000000 
-0.161173 -0.015713 -0.511379 137 131 115 -0.810584 0.417283 0.410888 0.000000 
-0.158148 -0.017438 -0.515827 120 118 113 0.382002 -0.363292 0.849761 0.000000 
-0.174483 -0.045210 -0.513820 97 92 78 0.628390 -0.332868 0.703082 0.000000 
-0.129664 0.027919 -0.508379 110 105 96 0.469254 -0.232349 0.851947 0.000000 
-0.159956 -0.017299 -0.513789 110 102 92 0.772610 -0.533891 0.343561 0.000000 
-0.169331 -0.033555 -0.513529 94 85 74 -0.606978 0.256981 -0.752023 0.000000 
-0.132699 0.023627 -0.509047 104 94 77 0.475681 -0.802412 0.360365 0.000000 
-0.140527 0.012203 -0.509505 129 118 105 -0.043926 0.116010 0.992276 0.000000 
-0.166089 -0.029417 -0.512929 105 97 84 0.711247 -0.265723 0.650783 0.000000 
-0.077126 0.091856 -0.507002 125 120 105 0.234769 -0.223786 0.945940 0.000000 
-0.199900 -0.078644 -0.514346 121 113 94 -0.028188 0.887260 -0.460408 0.000000 
-0.144235 0.008977 -0.510660 145 131 115 0.809217 -0.277043 -0.518087 0.000000 
-0.111953 0.046591 -0.506603 90 85 64 -0.492016 -0.216487 0.843240 0.000000 
-0.107803 0.057432 -0.508221 77 65 46 -0.998128 -0.001036 -0.061152 0.000000 
-0.160802 -0.017709 -0.511792 153 144 132 0.569405 -0.498860 0.653389 0.000000 
-0.192876 -0.068818 -0.514148 106 93 77 -0.894435 0.396713 0.206408 0.000000 
-0.161435 -0.016343 -0.513059 99 87 68 -0.824283 0.464940 0.323094 0.000000 
-0.173935 -0.044818 -0.513553 97 91 78 0.727797 -0.386077 0.566794 0.000000 
-0.138642 0.016422 -0.509227 108 100 84 -0.805157 0.575962 -0.141386 0.000000 
-0.171692 -0.031538 -0.515805 107 98 85 0.872908 -0.483092 0.068218 0.000000 
-0.131291 0.024152 -0.509590 133 127 117 0.787357 -0.604182 0.122609 0.000000 
-0.163407 -0.023719 -0.515737 79 73 64 -0.425972 0.571830 -0.701113 0.000000 
-0.132511 0.025780 -0.511856 100 92 79 0.080471 0.995410 -0.051810 0.000000 
-0.168104 -0.032148 -0.514257 118 110 97 -0.850172 0.396332 -0.346596 0.000000 
-0.183225 -0.057616 -0.512975 112 102 85 -0.134968 -0.037428 -0.990143 0.000000 
-0.155660 -0.012702 -0.513943 145 135 121 0.822690 -0.470333 0.319323 0.000000 
-0.166799 -0.028845 -0.512807 163 149 128 0.418545 -0.325189 0.847981 0.000000 
-0.178549 -0.047090 -0.512653 120 109 92 0.263006 -0.183968 0.947092 0.000000 
-0.158252 -0.015938 -0.513700 143 132 120 -0.719024 0.591270 -0.365245 0.000000 
-0.164453 -0.024888 -0.512979 113 112 106 0.794874 -0.601565 0.079343 0.000000 
-0.118503 0.046108 -0.510196 74 64 49 -0.614447 0.786321 0.064453 0.000000 
-0.146239 0.006333 -0.509556 154 146 134 -0.350935 0.092776 0.931793 0.000000 
-0.185093 -0.059108 -0.512866 161 152 136 0.074296 -0.001046 0.997236 0.000000 
-0.067475 0.103025 -0.506501 145 135 123 0.521927 -0.589491 0.616516 0.000000 
-0.184312 -0.054561 -0.515461 84 68 47 -0.769947 0.635671 -0.055710 0.000000 
-0.176092 -0.046302 -0.513791 94 88 78 0.542305 -0.436166 0.718098 0.000000 
-0.149066 0.003534 -0.513736 71 60 42 -0.592515 0.786484 0.174269 0.000000 
-0.171642 -0.036007 -0.512333 113 104 89 0.031025 -0.157421 0.987044 0.000000 
-0.169502 -0.034307 -0.513950 98 95 91 -0.770140 0.104152 -0.629314 0.000000 
-0.070939 0.093298 -0.506282 119 105 85 -0.149262 -0.012345 0.988721 0.000000 
-0.146392 0.002729 -0.512476 103 94 75 0.740667 -0.473433 0.476732 0.000000 
-0.188602 -0.064959 -0.513098 154 146 130 0.110818 0.043655 0.992881 0.000000 
-0.066685 0.105120 -0.506777 122 117 101 0.769881 -0.110404 0.628565 0.000000 
-0.103490 0.062943 -0.506590 126 126 122 0.095557 -0.090952 0.991260 0.000000 
-0.199446 -0.084720 -0.511631 102 93 70 0.925551 0.348296 0.148477 0.000000 
-0.107674 0.054887 -0.506793 100 93 82 0.390772 0.038156 0.919696 0.000000 
-0.127059 0.029987 -0.510319 106 96 81 0.657778 -0.720275 0.220301 0.000000 
-0.129081 0.029742 -0.507939 158 147 129 0.094804 -0.113530 0.989001 0.000000 
-0.104227 0.061134 -0.507130 91 83 70 0.603192 -0.401577 -0.689126 0.000000 
-0.167855 -0.028563 -0.512105 141 128 108 0.258227 -0.030596 0.965600 0.000000 
-0.151537 0.000195 -0.511778 114 110 100 0.882855 -0.464296 0.070684 0.000000 
-0.175802 -0.044492 -0.512602 103 94 80 0.329624 -0.178137 0.927154 0.000000 
-0.195484 -0.080684 -0.515242 100 94 72 -0.793784 0.244841 -0.556740 0.000000 
-0.106078 0.058590 -0.510615 93 94 90 0.865413 -0.291524 0.407522 0.000000 
-0.068568 0.101726 -0.506784 132 126 109 0.511295 0.009443 0.859353 0.000000 
-0.136295 0.019667 -0.508153 114 105 91 -0.307321 0.006171 0.951586 0.000000 
-0.195267 -0.079986 -0.515970 92 83 66 -0.969412 0.221761 -0.105178 0.000000 
-0.183507 -0.062652 -0.513162 89 83 69 -0.892399 0.297466 -0.339321 0.000000 
-0.114114 0.048155 -0.507227 148 142 129 0.142732 -0.451264 0.880902 0.000000 
-0.104803 0.059821 -0.505743 107 98 75 0.437386 -0.392526 0.809084 0.000000 
-0.140414 0.010781 -0.512794 127 116 100 0.572731 -0.795715 0.197020 0.000000 
-0.100887 0.070847 -0.508332 101 87 66 -0.003068 -0.043970 0.999028 0.000000 
-0.193398 -0.078603 -0.516487 90 81 63 0.805355 -0.590217 0.055200 0.000000 
-0.186916 -0.067389 -0.513363 92 84 67 -0.016304 -0.103256 -0.994521 0.000000 
-0.155573 -0.009373 -0.510666 134 129 114 0.340661 -0.154340 0.927432 0.000000 
-0.158379 -0.013909 -0.511539 150 142 131 0.476351 -0.364080 0.800334 0.000000 
-0.182733 -0.056953 -0.513129 162 153 139 -0.192477 -0.022164 -0.981051 0.000000 
-0.183100 -0.053262 -0.513141 131 120 100 -0.197108 0.064090 0.978285 0.000000 
-0.179685 -0.049844 -0.513114 168 157 146 0.497252 -0.524040 0.691464 0.000000 
-0.120609 0.040034 -0.507716 104 94 77 0.069451 -0.065041 0.995463 0.000000 
-0.142058 0.011004 -0.509410 116 110 98 0.284546 -0.586579 0.758260 0.000000 
-0.200771 -0.078269 -0.514182 146 131 111 -0.392239 0.082791 0.916130 0.000000 
-0.148072 0.000678 -0.510432 135 125 110 0.637810 -0.509911 0.577226 0.000000 
-0.101563 0.065549 -0.508596 95 87 71 -0.843996 0.533271 0.057386 0.000000 
-0.187514 -0.061730 -0.512941 142 136 122 -0.364316 0.051294 0.929862 0.000000 
-0.194253 -0.076006 -0.514404 101 92 79 -0.413869 0.439635 -0.797141 0.000000 
-0.162480 -0.018187 -0.513755 116 101 82 -0.956205 0.238718 0.169370 0.000000 
-0.145900 0.004558 -0.509911 135 127 115 0.063267 -0.239422 0.968852 0.000000 
-0.090756 0.075665 -0.507126 145 137 122 0.247869 -0.353470 0.902009 0.000000 
-0.116690 0.046172 -0.507157 146 135 120 0.190567 0.129990 -0.973030 0.000000 
-0.158755 -0.012254 -0.511124 155 146 131 -0.127703 -0.037294 0.991111 0.000000 
-0.087041 0.078597 -0.506843 123 116 107 0.520171 -0.352685 0.777840 0.000000 
-0.192040 -0.069305 -0.512931 140 132 116 0.058801 -0.039557 0.997486 0.000000 
-0.159669 -0.008794 -0.512724 139 134 120 -0.540262 0.457144 -0.706496 0.000000 
-0.175681 -0.038167 -0.513342 130 122 106 -0.647974 0.255071 0.717683 0.000000 
-0.195637 -0.080817 -0.515882 107 103 94 0.867818 -0.374983 0.326006 0.000000 
-0.161852 -0.022009 -0.513522 141 120 96 -0.943964 0.265189 -0.196487 0.000000 
-0.111961 0.052600 -0.511069 105 101 93 -0.666495 0.528831 -0.525473 0.000000 
-0.178765 -0.048650 -0.512860 162 151 138 0.392842 -0.117991 0.912005 0.000000 
-0.083293 0.086884 -0.508085 102 95 79 -0.768575 0.288017 0.571260 0.000000 
-0.107320 0.053394 -0.507746 88 88 82 -0.269323 0.920307 -0.283725 0.000000 
-0.150041 -0.003007 -0.511278 131 122 111 -0.827942 0.315781 -0.463459 0.000000 
-0.092279 0.075609 -0.506505 130 131 128 0.173138 -0.065673 0.982706 0.000000 
-0.165820 -0.027239 -0.513155 164 155 142 0.801336 -0.141237 0.581303 0.000000 
-0.117083 0.043265 -0.507521 128 122 112 0.498973 -0.336368 0.798675 0.000000 
-0.179856 -0.053585 -0.513315 89 81 64 0.356339 -0.125200 0.925931 0.000000 
-0.138369 0.015074 -0.512128 117 111 105 0.656814 -0.630209 0.414042 0.000000 
-0.197364 -0.079193 -0.514293 121 109 93 0.190116 -0.498492 0.845790 0.000000 
-0.147166 0.002065 -0.511590 105 96 76 0.711656 -0.569655 0.411143 0.000000 
-0.132792 0.026128 -0.512026 90 83 71 0.801969 -0.568504 0.183437 0.000000 
-0.135010 0.018453 -0.513280 109 98 81 -0.681618 0.448302 0.578292 0.000000 
-0.074404 0.094149 -0.507542 125 105 77 0.615174 -0.641993 -0.457609 0.000000 
-0.165343 -0.023024 -0.515332 78 62 43 -0.277876 0.301154 -0.912190 0.000000 
-0.157786 -0.016971 -0.515445 123 115 102 -0.326759 0.465671 -0.822423 0.000000 
-0.151290 -0.005243 -0.511200 122 118 108 -0.479002 0.763460 -0.433227 0.000000 
-0.069719 0.099331 -0.506508 141 135 119 -0.565486 0.422870 -0.708101 0.000000 
-0.151391 -0.001410 -0.510281 151 142 128 -0.451148 0.220328 0.864825 0.000000 
-0.188185 -0.060089 -0.513000 74 68 53 -0.792923 0.187197 0.579854 0.000000 
-0.066713 0.103289 -0.506968 108 100 81 0.521911 -0.742529 0.419833 0.000000 
-0.178538 -0.048709 -0.513485 127 123 117 -0.540388 0.480159 -0.690961 0.000000 
-0.089942 0.075204 -0.508409 103 101 96 -0.714418 0.684210 -0.146508 0.000000 
-0.129528 0.028549 -0.508124 111 103 89 -0.456916 -0.053193 0.887918 0.000000 
-0.137410 0.019017 -0.511599 116 106 91 -0.662761 0.348563 0.662761 0.000000 
-0.163941 -0.020436 -0.514471 97 83 64 -0.969985 0.234134 0.065657 0.000000 
-0.152476 -0.003433 -0.510726 117 108 93 -0.424472 0.546694 0.721768 0.000000 
-0.069469 0.101544 -0.506726 149 136 119 -0.638117 0.365810 0.677487 0.000000 
-0.069752 0.098539 -0.508351 116 102 79 0.421349 -0.882616 0.208457 0.000000 
-0.102045 0.064385 -0.507113 110 100 81 -0.239858 0.435968 0.867410 0.000000 
-0.110161 0.053140 -0.506878 127 120 108 0.244929 -0.784709 0.569421 0.000000 
-0.144046 0.003361 -0.513644 114 102 85 -0.759720 0.477491 -0.441392 0.000000 
-0.070120 0.100413 -0.506135 154 144 131 0.214454 0.052099 0.975344 0.000000 
-0.127343 0.030092 -0.509142 90 75 56 0.616624 -0.731941 0.289893 0.000000 
-0.196141 -0.080692 -0.514322 140 134 119 0.312459 0.116669 0.942740 0.000000 
-0.080306 0.087958 -0.507139 89 84 73 0.252502 -0.219387 0.942397 0.000000 
-0.185640 -0.060898 -0.512900 131 127 120 -0.110592 0.039098 -0.993097 0.000000 
-0.120292 0.038689 -0.510549 83 71 55 -0.799479 0.525101 0.291723 0.000000 
-0.129288 0.029116 -0.507935 153 140 124 0.082194 -0.375935 0.922994 0.000000 
-0.156135 -0.011574 -0.512646 130 127 120 -0.655397 0.658682 -0.369585 0.000000 
-0.157345 -0.010627 -0.510670 155 148 134 0.102511 -0.378606 0.919863 0.000000 
-0.178761 -0.045655 -0.512360 88 79 62 0.202621 -0.112008 -0.972831 0.000000 
-0.090606 0.075244 -0.508937 87 86 82 0.055630 0.765978 0.640455 0.000000 
-0.154840 -0.009925 -0.512543 138 128 114 0.668389 -0.618633 0.412975 0.000000 
