ply
format ascii 1.0
comment Created by Open3D
obj_info Generated by CloudCompare!
element vertex 622
property float x
property float y
property float z
property uchar red
property uchar green
property uchar blue
property float nx
property float ny
property float nz
property float scalar_leaf11
end_header
-0.129967 0.272101 -0.415981 106 106 99 0.089378 0.935133 -0.342838 0.000000 
-0.098966 0.214846 -0.531898 80 72 52 -0.896224 -0.343329 -0.280906 0.000000 
-0.108368 0.227165 -0.505695 108 103 91 0.861144 -0.039830 0.506798 0.000000 
-0.118818 0.255901 -0.459805 71 66 50 0.933995 0.344386 0.095142 0.000000 
-0.114731 0.250336 -0.480866 103 100 90 -0.066786 -0.817069 0.572659 0.000000 
-0.098118 0.213801 -0.534424 87 86 72 -0.895793 -0.443210 -0.033475 0.000000 
-0.095919 0.212221 -0.538691 55 53 42 -0.273691 -0.908887 0.314671 0.000000 
-0.118412 0.251888 -0.462862 72 65 48 0.771670 0.635901 -0.012469 0.000000 
-0.127046 0.269197 -0.424719 68 69 63 -0.953550 -0.242746 0.178372 0.000000 
-0.103124 0.222653 -0.521471 80 73 53 -0.964907 -0.201836 -0.167980 0.000000 
-0.135103 0.283294 -0.390906 107 105 98 0.089540 -0.953800 0.286789 0.000000 
-0.144174 0.297148 -0.364848 82 72 47 -0.619502 -0.652898 -0.435822 0.000000 
-0.125258 0.263469 -0.444927 52 45 28 0.215268 -0.922372 0.320763 0.000000 
-0.102365 0.230635 -0.512361 91 87 65 -0.355357 0.807920 -0.470092 0.000000 
-0.109332 0.237389 -0.489829 96 90 76 0.932198 0.029737 -0.360726 0.000000 
-0.115579 0.249883 -0.466438 52 50 39 0.860658 0.495704 0.116383 0.000000 
-0.099897 0.221698 -0.529690 81 75 57 0.940016 0.321408 0.114308 0.000000 
-0.108410 0.230957 -0.508910 85 78 58 0.938440 0.344393 0.026886 0.000000 
-0.123963 0.263476 -0.445614 54 47 29 -0.486344 -0.871540 0.062352 0.000000 
-0.124676 0.265771 -0.432980 64 65 59 0.864649 0.493883 0.091984 0.000000 
-0.105136 0.223775 -0.513598 79 82 72 0.832543 0.528717 0.165317 0.000000 
-0.121779 0.257459 -0.451573 84 79 65 -0.754618 -0.636662 0.158787 0.000000 
-0.113091 0.246314 -0.477180 69 69 58 -0.906890 -0.083692 -0.412971 0.000000 
-0.123765 0.261371 -0.441038 100 104 103 0.380203 0.882130 -0.278014 0.000000 
-0.112401 0.243579 -0.477189 78 71 56 -0.535899 0.613664 -0.579853 0.000000 
-0.106292 0.235356 -0.501822 82 75 55 0.637164 -0.767198 0.073686 0.000000 
-0.120136 0.254514 -0.458471 86 81 62 0.845381 0.513109 -0.148493 0.000000 
-0.126293 0.266738 -0.435914 57 53 40 -0.474261 -0.838839 0.267255 0.000000 
-0.115142 0.247414 -0.477698 70 67 54 0.453937 0.877417 -0.155180 0.000000 
-0.116049 0.250650 -0.465324 68 70 66 -0.943527 -0.227273 -0.241047 0.000000 
-0.127765 0.266564 -0.436746 53 45 29 0.480593 -0.720057 0.500548 0.000000 
-0.113210 0.244475 -0.485838 72 68 51 0.542210 0.778927 -0.315089 0.000000 
-0.114285 0.249699 -0.467505 107 98 83 0.742104 0.658821 -0.123436 0.000000 
-0.112987 0.248035 -0.481843 86 80 62 0.944791 0.327478 0.011292 0.000000 
-0.108723 0.236043 -0.494186 76 72 58 0.947543 -0.203142 0.246770 0.000000 
-0.114271 0.249375 -0.475636 87 80 60 0.887170 0.442873 0.129587 0.000000 
-0.101572 0.218878 -0.520006 90 86 64 0.867246 -0.291114 0.403902 0.000000 
-0.113243 0.243569 -0.477401 104 105 103 -0.975247 -0.209770 0.069923 0.000000 
-0.136157 0.279765 -0.403570 53 47 30 -0.926183 0.130739 0.353684 0.000000 
-0.105946 0.224273 -0.513355 89 85 67 -0.496600 -0.827667 -0.261450 0.000000 
-0.130731 0.275420 -0.411826 65 61 46 -0.899829 -0.436081 0.011857 0.000000 
-0.122879 0.256709 -0.456910 67 61 49 -0.544169 -0.763775 0.347170 0.000000 
-0.105213 0.226322 -0.511880 78 76 58 -0.866549 0.153436 -0.474921 0.000000 
-0.110981 0.242146 -0.481520 77 78 75 0.978510 -0.041817 0.201915 0.000000 
-0.138391 0.283384 -0.396700 70 65 49 -0.848329 0.317930 -0.423389 0.000000 
-0.127246 0.269891 -0.419239 100 100 92 0.482732 0.870617 -0.094848 0.000000 
-0.099602 0.219116 -0.525027 74 76 66 0.937265 0.227681 0.263999 0.000000 
-0.132847 0.279345 -0.403114 60 57 42 0.782275 0.621591 0.040876 0.000000 
-0.100459 0.215992 -0.526087 93 91 75 0.777502 0.604048 -0.174976 0.000000 
-0.104699 0.221252 -0.515687 98 95 82 0.222868 -0.934923 0.276132 0.000000 
-0.143258 0.295681 -0.367409 99 96 79 0.824420 0.262386 0.501483 0.000000 
-0.104052 0.222609 -0.516381 89 86 70 0.926855 -0.246307 0.283324 0.000000 
-0.117199 0.250260 -0.464701 72 70 62 -0.861360 -0.454062 -0.227785 0.000000 
-0.113749 0.246109 -0.473812 68 66 55 0.586977 -0.600510 0.542996 0.000000 
-0.141119 0.294470 -0.375340 84 81 71 0.071100 -0.969208 0.235753 0.000000 
-0.102075 0.228287 -0.516772 48 46 31 -0.554899 0.750171 -0.359626 0.000000 
-0.115573 0.247487 -0.483479 86 81 68 -0.987782 -0.056876 -0.145091 0.000000 
-0.142009 0.294605 -0.373602 60 54 38 -0.075740 -0.896491 0.436540 0.000000 
-0.131248 0.275219 -0.409433 67 65 52 -0.571862 0.474595 -0.669129 0.000000 
-0.127538 0.270370 -0.421888 53 50 38 0.559360 0.828732 -0.017867 0.000000 
-0.108509 0.235586 -0.494812 69 65 53 0.970610 -0.206810 0.123071 0.000000 
-0.129894 0.273069 -0.412884 92 89 73 -0.366823 0.897170 -0.246022 0.000000 
-0.126775 0.267791 -0.433131 71 66 51 0.817069 0.572659 -0.066786 0.000000 
-0.127509 0.269095 -0.427091 70 70 60 0.960742 -0.001212 0.277440 0.000000 
-0.128838 0.271940 -0.416791 69 64 43 0.979026 -0.049131 0.197723 0.000000 
-0.100253 0.218756 -0.527322 74 69 49 0.526239 0.482803 -0.699981 0.000000 
-0.099946 0.219867 -0.523835 80 76 55 0.941779 0.026762 0.335166 0.000000 
-0.135288 0.280713 -0.398107 68 65 49 -0.190416 -0.957409 0.217048 0.000000 
-0.104046 0.236121 -0.507771 91 92 85 0.881559 0.472026 -0.006648 0.000000 
-0.110093 0.242715 -0.489592 88 85 68 0.976207 0.123428 0.178286 0.000000 
-0.106616 0.227221 -0.513685 92 85 63 -0.976890 -0.082122 -0.197339 0.000000 
-0.139399 0.291053 -0.377867 58 56 41 0.924420 0.361252 0.122249 0.000000 
-0.104690 0.237715 -0.504993 104 98 82 -0.860032 -0.501804 -0.092400 0.000000 
-0.110448 0.240703 -0.484090 90 91 85 0.962080 -0.271545 0.025803 0.000000 
-0.131101 0.276356 -0.414496 58 51 35 0.737010 0.675708 -0.015325 0.000000 
-0.123184 0.262645 -0.438737 82 76 59 -0.679474 0.498281 -0.538546 0.000000 
-0.111477 0.240002 -0.481916 99 99 94 0.736263 0.646738 -0.199115 0.000000 
-0.114863 0.247516 -0.472207 67 64 49 0.196453 0.193816 0.961167 0.000000 
-0.131746 0.276411 -0.407107 87 88 78 -0.997394 0.067061 -0.026611 0.000000 
-0.135515 0.274663 -0.407524 84 74 50 0.478762 0.876120 0.056568 0.000000 
-0.139165 0.292964 -0.372786 113 110 99 -0.110216 -0.991941 -0.062493 0.000000 
-0.111560 0.242353 -0.484437 88 81 65 0.869012 -0.062569 -0.490818 0.000000 
-0.137925 0.284545 -0.390997 71 69 58 0.391604 0.864601 -0.314819 0.000000 
-0.109092 0.233999 -0.497405 100 105 103 0.340266 -0.800345 0.493626 0.000000 
-0.095552 0.211760 -0.540749 61 58 47 -0.337826 -0.887356 0.313803 0.000000 
-0.128738 0.272438 -0.419079 46 44 32 0.748771 0.659666 -0.064673 0.000000 
-0.120899 0.258788 -0.447309 55 54 43 -0.560507 -0.447408 0.696892 0.000000 
-0.106357 0.237369 -0.499379 64 59 42 -0.800090 -0.032115 -0.599020 0.000000 
-0.134974 0.277301 -0.409381 72 71 55 -0.841169 -0.518893 -0.152268 0.000000 
-0.124895 0.265782 -0.431886 73 76 72 -0.684399 -0.557225 -0.470211 0.000000 
-0.134851 0.283211 -0.396315 51 49 33 -0.919393 -0.393289 0.006447 0.000000 
-0.126030 0.267669 -0.428076 51 49 39 0.643977 0.705002 0.297096 0.000000 
-0.102402 0.224964 -0.519430 72 70 49 -0.890830 0.370311 -0.263233 0.000000 
-0.095609 0.211976 -0.539509 53 51 41 -0.338985 -0.920506 0.194313 0.000000 
-0.094236 0.210415 -0.547847 96 91 77 -0.543228 -0.828828 0.133967 0.000000 
-0.107745 0.233344 -0.502829 52 49 32 -0.978018 0.127675 -0.164862 0.000000 
-0.129289 0.273098 -0.420309 53 50 36 0.802088 0.591088 -0.085267 0.000000 
-0.133119 0.280443 -0.398559 83 82 71 -0.908327 0.261820 -0.326179 0.000000 
-0.119426 0.257053 -0.457782 59 55 39 0.849755 0.518422 0.095687 0.000000 
-0.102363 0.217505 -0.519898 98 95 79 -0.584586 -0.802517 0.119273 0.000000 
-0.109886 0.235792 -0.494258 82 78 64 0.883525 0.379511 -0.274508 0.000000 
-0.133321 0.280576 -0.401764 51 48 28 0.876819 0.471484 0.094297 0.000000 
-0.104051 0.228765 -0.513502 57 56 40 -0.741313 0.447429 -0.500262 0.000000 
-0.115591 0.249848 -0.467215 62 63 58 0.970383 0.131340 0.202748 0.000000 
-0.102617 0.225189 -0.517500 55 53 36 -0.832150 0.324398 -0.449769 0.000000 
-0.116166 0.252771 -0.472132 88 84 70 -0.819121 -0.573247 0.020720 0.000000 
-0.119987 0.257346 -0.455836 61 57 41 -0.693084 -0.641143 -0.329499 0.000000 
-0.142066 0.292052 -0.374444 77 74 62 0.742207 0.643861 -0.185936 0.000000 
-0.104353 0.229314 -0.510502 78 72 52 0.880355 -0.167340 0.443815 0.000000 
-0.098986 0.221828 -0.527802 75 72 52 0.872502 0.334638 0.356030 0.000000 
-0.107636 0.235960 -0.498714 90 84 64 0.290661 -0.150062 0.944986 0.000000 
-0.117234 0.252251 -0.460788 75 78 72 0.891923 -0.141281 0.429550 0.000000 
-0.108514 0.228466 -0.504582 99 96 85 -0.887092 0.346732 -0.304704 0.000000 
-0.106165 0.232753 -0.514701 92 91 84 -0.851327 0.471948 -0.229145 0.000000 
-0.127706 0.269945 -0.426986 68 66 54 -0.729592 -0.669420 -0.139901 0.000000 
-0.112238 0.249730 -0.480021 78 81 77 0.973026 0.230547 -0.008276 0.000000 
-0.140324 0.290757 -0.376066 82 81 72 -0.538355 0.841614 0.043124 0.000000 
-0.109177 0.234457 -0.506715 77 71 56 0.979744 0.089068 0.179355 0.000000 
-0.095589 0.219521 -0.533490 51 52 41 0.762485 -0.460770 0.454211 0.000000 
-0.133892 0.281323 -0.396894 52 48 29 -0.253880 0.935570 -0.245464 0.000000 
-0.113411 0.247217 -0.475056 72 69 55 0.978371 0.171926 0.115030 0.000000 
-0.140489 0.293168 -0.368993 95 84 53 -0.648972 0.304357 0.697282 0.000000 
-0.121068 0.258961 -0.447480 81 84 79 -0.979013 -0.159259 -0.127161 0.000000 
-0.113900 0.249507 -0.477951 63 58 41 -0.815890 -0.574670 -0.063852 0.000000 
-0.105369 0.237252 -0.503295 88 83 64 -0.965294 -0.230691 -0.122434 0.000000 
-0.105628 0.234796 -0.504078 89 82 59 0.640914 -0.624180 0.446799 0.000000 
-0.128613 0.270819 -0.421961 68 65 54 0.933237 0.319374 -0.164526 0.000000 
-0.107170 0.230085 -0.513996 88 82 69 0.943392 0.108083 0.313575 0.000000 
-0.095957 0.213299 -0.546490 83 81 66 0.967356 0.214540 0.134890 0.000000 
-0.097202 0.212655 -0.540801 92 85 70 -0.896140 -0.443437 -0.017208 0.000000 
-0.122838 0.258273 -0.456584 59 55 42 -0.718343 0.539172 -0.439633 0.000000 
-0.129359 0.273232 -0.412146 98 97 88 0.654631 -0.467115 0.594358 0.000000 
-0.096840 0.212958 -0.541713 87 84 71 -0.935523 -0.269889 -0.227938 0.000000 
-0.112065 0.241844 -0.494213 69 64 51 0.943229 -0.080247 0.322303 0.000000 
-0.139638 0.289151 -0.379775 79 76 65 0.376282 -0.908513 0.181703 0.000000 
-0.098670 0.221135 -0.527915 77 75 55 -0.864458 -0.252828 -0.434500 0.000000 
-0.107578 0.224423 -0.509387 113 118 113 0.143130 -0.924093 0.354352 0.000000 
-0.143683 0.293991 -0.369842 85 78 60 -0.410858 -0.902194 0.131305 0.000000 
-0.098572 0.215757 -0.523657 74 69 53 -0.775924 -0.630000 0.032272 0.000000 
-0.101318 0.217259 -0.521595 98 94 75 0.658910 -0.746570 0.092043 0.000000 
-0.127397 0.266938 -0.429796 72 68 53 -0.547663 -0.787561 0.282512 0.000000 
-0.133541 0.275971 -0.410235 81 76 56 -0.434240 -0.809192 0.395783 0.000000 
-0.140381 0.292555 -0.375195 82 78 60 -0.957505 -0.258750 -0.127405 0.000000 
-0.118788 0.255320 -0.454341 55 54 43 -0.903212 0.272584 -0.331521 0.000000 
-0.108474 0.225184 -0.509411 95 90 77 -0.961296 -0.270168 -0.054034 0.000000 
-0.143098 0.296663 -0.366460 91 82 61 0.195603 -0.855576 0.479302 0.000000 
-0.128917 0.270983 -0.418120 104 105 97 0.436487 -0.800494 0.410716 0.000000 
-0.111591 0.245999 -0.485225 92 87 66 0.913517 0.402270 0.060542 0.000000 
-0.111722 0.242353 -0.481221 74 68 53 -0.682178 -0.685344 -0.254828 0.000000 
-0.116252 0.253278 -0.470085 90 91 83 0.722112 0.691144 0.029560 0.000000 
-0.138409 0.288637 -0.389223 89 91 83 -0.077718 0.854899 -0.512940 0.000000 
-0.128574 0.271945 -0.419546 58 56 45 -0.694404 -0.714785 0.082979 0.000000 
-0.112552 0.244207 -0.482728 80 74 55 0.544228 0.838848 0.012276 0.000000 
-0.139017 0.290242 -0.382483 67 65 49 -0.876989 -0.476474 -0.062149 0.000000 
-0.110219 0.243517 -0.489088 91 86 67 0.963807 0.220411 0.149984 0.000000 
-0.099307 0.218792 -0.526403 70 73 60 0.919229 0.126169 0.372960 0.000000 
-0.106957 0.237144 -0.498003 86 80 61 -0.519974 0.370947 -0.769432 0.000000 
-0.123742 0.262603 -0.438646 70 68 56 0.176608 0.856325 -0.485300 0.000000 
-0.119697 0.252657 -0.462328 75 69 55 -0.647074 -0.757585 0.085792 0.000000 
-0.094156 0.210984 -0.546681 61 56 42 0.211789 0.970173 -0.117943 0.000000 
-0.113362 0.246625 -0.474018 79 76 64 0.980393 -0.063756 -0.186455 0.000000 
-0.110672 0.239785 -0.491345 81 74 58 0.842745 0.481787 -0.240129 0.000000 
-0.118226 0.250445 -0.470817 75 69 54 -0.593533 -0.799600 0.091424 0.000000 
-0.132649 0.273334 -0.418194 82 77 62 -0.864976 -0.385629 -0.321101 0.000000 
-0.124232 0.264800 -0.435482 54 53 42 0.861105 0.477079 0.175766 0.000000 
-0.109912 0.237112 -0.491814 79 75 61 0.962552 0.270297 -0.020792 0.000000 
-0.126030 0.264642 -0.431911 112 115 111 -0.246567 -0.955614 0.161268 0.000000 
-0.136657 0.283984 -0.389233 98 95 85 0.158096 0.790481 -0.591731 0.000000 
-0.125189 0.262075 -0.447896 58 53 39 0.641678 -0.631678 0.435008 0.000000 
-0.102751 0.221418 -0.521926 82 78 56 -0.953133 -0.176108 -0.246013 0.000000 
-0.108185 0.231480 -0.501600 93 92 79 -0.876246 0.146282 -0.459124 0.000000 
-0.124030 0.263173 -0.437616 88 86 74 -0.494540 -0.432106 0.754132 0.000000 
-0.102123 0.222430 -0.524594 82 75 57 0.944151 0.227423 0.238450 0.000000 
-0.099398 0.221452 -0.526606 78 76 56 0.909967 0.190592 0.368286 0.000000 
-0.119975 0.257089 -0.451190 74 72 60 -0.829696 -0.188225 -0.525524 0.000000 
-0.117185 0.253422 -0.471169 81 76 62 0.325968 0.940650 -0.094464 0.000000 
-0.117111 0.248991 -0.476407 68 63 50 0.885711 0.450625 0.111597 0.000000 
-0.099684 0.228304 -0.519161 95 90 71 -0.843598 0.419460 -0.335256 0.000000 
-0.129617 0.273894 -0.414192 51 48 33 -0.868683 -0.487310 -0.088987 0.000000 
-0.109111 0.237934 -0.492481 77 73 56 0.961173 0.129113 0.243880 0.000000 
-0.116620 0.251419 -0.465314 69 65 50 -0.766646 -0.587185 0.259747 0.000000 
-0.106143 0.226678 -0.510602 82 76 54 -0.825507 -0.001360 -0.564391 0.000000 
-0.135900 0.279638 -0.405334 56 48 30 0.804156 -0.478017 0.353317 0.000000 
-0.097030 0.213264 -0.540786 84 76 60 -0.972103 -0.135613 -0.191379 0.000000 
-0.108781 0.234236 -0.500850 79 79 65 -0.788769 0.611902 -0.058480 0.000000 
-0.092464 0.209456 -0.558287 88 85 72 0.682967 0.721486 0.114075 0.000000 
-0.111930 0.240029 -0.493789 75 68 49 -0.777874 -0.600598 0.184917 0.000000 
-0.132113 0.276971 -0.413660 53 47 31 -0.379646 -0.916436 0.126549 0.000000 
-0.094757 0.211664 -0.552894 79 74 58 0.949675 0.296362 0.101422 0.000000 
-0.110636 0.245638 -0.488795 102 97 82 0.868304 0.480797 0.121993 0.000000 
-0.133955 0.278915 -0.400278 67 64 44 0.219675 0.917464 -0.331666 0.000000 
-0.113810 0.245639 -0.480632 81 75 59 0.755923 0.647725 -0.095039 0.000000 
-0.127524 0.269838 -0.425642 66 64 54 0.773707 0.618068 -0.139177 0.000000 
-0.112106 0.243708 -0.477684 93 88 73 0.688657 -0.196538 0.697943 0.000000 
-0.096872 0.225243 -0.527964 92 90 76 -0.881305 -0.448586 -0.148567 0.000000 
-0.108323 0.226768 -0.505107 120 117 108 0.986212 0.122829 0.110904 0.000000 
-0.095742 0.217969 -0.532625 70 72 58 0.863827 0.444728 0.236686 0.000000 
-0.127808 0.267576 -0.426025 111 116 115 -0.642394 -0.743583 0.185512 0.000000 
-0.101765 0.230214 -0.514351 75 76 63 0.681316 -0.581367 0.444771 0.000000 
-0.121404 0.259430 -0.449048 70 65 53 0.741501 0.521188 0.422540 0.000000 
-0.105562 0.222365 -0.514056 95 89 72 0.975379 -0.203461 -0.085084 0.000000 
-0.121798 0.258031 -0.449551 73 68 54 0.746863 0.647281 -0.152390 0.000000 
-0.100411 0.228133 -0.518839 84 81 64 -0.716641 0.557755 -0.418730 0.000000 
-0.111910 0.243566 -0.477803 81 77 64 -0.835393 0.130210 -0.534008 0.000000 
-0.111398 0.243730 -0.481655 86 83 71 -0.701428 0.401052 -0.589200 0.000000 
-0.095739 0.212298 -0.545292 86 79 62 -0.891263 -0.409893 -0.194006 0.000000 
-0.101965 0.225215 -0.519036 76 70 46 -0.811715 0.558713 -0.170174 0.000000 
-0.111165 0.244634 -0.485966 88 83 62 0.885501 0.464590 -0.006618 0.000000 
-0.106523 0.238352 -0.495275 89 82 69 -0.654819 -0.641556 -0.399522 0.000000 
-0.132818 0.279472 -0.399575 84 82 70 -0.619788 -0.692124 0.369900 0.000000 
-0.115051 0.250188 -0.474220 82 81 66 -0.930687 -0.343028 -0.127098 0.000000 
-0.143787 0.291998 -0.371002 83 76 54 0.278881 -0.827296 0.487653 0.000000 
-0.096748 0.219560 -0.530971 65 68 57 0.965358 0.033119 0.258819 0.000000 
-0.109585 0.233970 -0.495651 114 120 114 -0.015810 -0.964418 0.263908 0.000000 
-0.098471 0.213983 -0.531877 80 79 65 0.691199 0.717503 0.086217 0.000000 
-0.133228 0.278141 -0.402583 86 89 83 -0.228564 -0.906978 0.353765 0.000000 
-0.120466 0.257469 -0.454651 74 69 52 0.805621 0.558909 0.196456 0.000000 
-0.141418 0.294477 -0.370679 81 77 57 0.802412 0.568817 0.180505 0.000000 
-0.143797 0.296495 -0.366684 86 77 55 -0.155732 -0.898671 0.410046 0.000000 
-0.101738 0.220867 -0.524591 82 75 54 0.927899 0.242987 0.282775 0.000000 
-0.109721 0.235727 -0.503325 69 67 53 -0.977671 -0.196511 -0.074454 0.000000 
-0.111187 0.245031 -0.484043 80 79 67 0.910058 0.397192 0.118461 0.000000 
-0.136069 0.284623 -0.388945 78 76 61 -0.371553 0.814866 -0.444907 0.000000 
-0.104494 0.220854 -0.513029 86 90 82 0.486400 -0.539887 0.686977 0.000000 
-0.127225 0.267333 -0.435516 54 50 37 -0.135513 -0.891531 0.432214 0.000000 
-0.102583 0.219140 -0.521371 91 84 61 -0.964229 -0.233635 -0.125208 0.000000 
-0.110542 0.236690 -0.492111 75 73 65 -0.952318 -0.258505 0.162068 0.000000 
-0.119046 0.256290 -0.459736 77 74 58 -0.925192 -0.362151 -0.113428 0.000000 
-0.110127 0.236643 -0.494018 75 69 54 0.947653 0.233836 -0.217427 0.000000 
-0.141033 0.293867 -0.375760 66 61 39 -0.164622 -0.918787 0.358791 0.000000 
-0.140337 0.291668 -0.374742 106 109 103 0.853341 -0.186156 0.486985 0.000000 
-0.121981 0.261635 -0.441262 87 84 75 0.162647 -0.984195 0.070045 0.000000 
-0.121404 0.259430 -0.449048 70 65 53 0.741501 0.521188 0.422540 0.000000 
-0.109662 0.233862 -0.499801 72 67 53 0.908629 -0.405218 0.100959 0.000000 
-0.121604 0.260132 -0.445038 63 62 52 -0.881476 -0.426711 -0.202282 0.000000 
-0.098733 0.211032 -0.534414 100 108 109 -0.913410 0.336216 -0.229435 0.000000 
-0.139239 0.290623 -0.381515 67 64 48 -0.887025 -0.426762 -0.176240 0.000000 
-0.114628 0.248532 -0.471984 77 73 56 0.098133 0.905309 0.413263 0.000000 
-0.116176 0.248555 -0.473341 70 63 46 -0.786104 -0.567307 0.245364 0.000000 
-0.144088 0.295737 -0.364987 107 103 88 0.808661 -0.382713 0.446765 0.000000 
-0.132670 0.279500 -0.401330 48 43 24 0.809503 0.573582 0.125333 0.000000 
-0.110009 0.238039 -0.491638 75 70 57 0.902312 0.323415 0.285018 0.000000 
-0.112448 0.246360 -0.482186 90 86 70 0.869691 0.489635 -0.062418 0.000000 
-0.132950 0.279618 -0.402012 65 62 47 0.847329 0.526946 0.066044 0.000000 
-0.101377 0.222708 -0.521235 79 79 61 -0.959234 -0.093992 -0.266525 0.000000 
-0.109637 0.240220 -0.486246 67 66 59 -0.930352 -0.317579 -0.183272 0.000000 
-0.104011 0.232890 -0.507945 69 66 50 0.221914 -0.768164 0.600565 0.000000 
-0.145580 0.298192 -0.358621 97 89 70 0.806716 0.548567 0.219734 0.000000 
-0.141458 0.294142 -0.374414 70 66 47 0.230497 0.937353 -0.261230 0.000000 
-0.134624 0.282622 -0.395797 49 47 33 -0.985094 -0.089554 -0.146869 0.000000 
-0.123502 0.263371 -0.441363 55 53 38 -0.850564 -0.416761 0.320704 0.000000 
-0.110329 0.236663 -0.498861 80 73 55 0.711727 0.498376 -0.495042 0.000000 
-0.140345 0.294136 -0.373850 71 64 40 0.819331 0.468866 -0.329942 0.000000 
-0.111558 0.244193 -0.479946 57 54 47 -0.934458 -0.262772 -0.240289 0.000000 
-0.122885 0.261093 -0.441124 53 54 40 0.072899 -0.816178 0.573183 0.000000 
-0.117543 0.253419 -0.463406 78 73 52 0.843089 0.467013 0.266644 0.000000 
-0.121333 0.259114 -0.453178 78 73 58 -0.925466 -0.337424 0.172212 0.000000 
-0.144181 0.295431 -0.365960 101 98 87 -0.141253 0.965445 0.219007 0.000000 
-0.099007 0.218729 -0.526359 71 74 62 0.930622 0.053968 0.361982 0.000000 
-0.120336 0.251919 -0.466961 99 94 82 0.710335 0.639782 -0.293434 0.000000 
-0.131852 0.277009 -0.411175 66 62 47 -0.903965 -0.424365 -0.052540 0.000000 
-0.107978 0.225722 -0.507367 107 98 84 0.111602 -0.027624 0.993369 0.000000 
-0.109608 0.234080 -0.495411 114 120 115 0.139780 0.951833 -0.272903 0.000000 
-0.137743 0.282640 -0.395887 66 60 49 0.700649 0.709352 0.076883 0.000000 
-0.111387 0.245126 -0.484983 91 85 65 0.918934 0.393455 -0.027450 0.000000 
-0.137386 0.284032 -0.390390 80 76 64 0.029693 0.933399 -0.357609 0.000000 
-0.095803 0.211169 -0.540860 96 89 74 -0.462397 -0.766304 0.446058 0.000000 
-0.112418 0.245757 -0.480363 87 82 65 0.895188 0.379017 0.234489 0.000000 
-0.125110 0.265041 -0.432214 92 96 93 0.018086 -0.638573 0.769349 0.000000 
-0.101359 0.231210 -0.512288 96 89 77 0.817215 -0.303897 0.489699 0.000000 
-0.097432 0.213056 -0.538891 89 82 66 0.831603 0.545242 0.105577 0.000000 
-0.101322 0.232180 -0.517330 90 88 77 -0.817585 -0.536397 0.209363 0.000000 
-0.127181 0.265377 -0.439941 55 47 31 0.477950 -0.768309 0.425751 0.000000 
-0.136290 0.283120 -0.391697 105 104 92 -0.473998 0.520567 -0.710166 0.000000 
-0.109655 0.236272 -0.503899 73 69 55 -0.977062 -0.206524 -0.051933 0.000000 
-0.110014 0.238018 -0.492237 81 75 61 0.508238 0.525012 -0.682683 0.000000 
-0.107849 0.231045 -0.504448 87 84 68 -0.997674 0.043748 0.052284 0.000000 
-0.129991 0.270134 -0.423775 86 82 68 0.107710 0.896649 -0.429440 0.000000 
-0.119180 0.252941 -0.460809 73 66 49 0.800887 0.561999 -0.206730 0.000000 
-0.114745 0.246426 -0.481599 73 69 58 0.599006 0.791279 -0.122759 0.000000 
-0.133214 0.274405 -0.416742 52 46 33 -0.737810 0.493524 -0.460512 0.000000 
-0.137671 0.280943 -0.400439 101 96 80 0.327259 0.834588 -0.443130 0.000000 
-0.114619 0.248656 -0.470896 63 63 52 -0.846477 -0.494655 -0.196960 0.000000 
-0.110198 0.236717 -0.494062 72 68 54 -0.947881 -0.214126 0.235947 0.000000 
-0.127527 0.269095 -0.423375 82 84 81 -0.606686 0.711344 -0.354854 0.000000 
-0.099350 0.226183 -0.522789 70 70 57 -0.520533 0.631715 -0.574440 0.000000 
-0.098498 0.216816 -0.522422 103 100 92 -0.844306 0.531391 0.069067 0.000000 
-0.136717 0.287138 -0.388032 67 63 47 -0.927039 -0.372130 0.046023 0.000000 
-0.114495 0.248210 -0.470875 62 59 45 0.859920 0.410731 0.303049 0.000000 
-0.106232 0.226761 -0.514897 85 81 61 0.924367 0.300526 0.235009 0.000000 
-0.110930 0.242543 -0.480963 77 74 63 0.892399 0.297466 0.339321 0.000000 
-0.098860 0.219486 -0.531775 82 75 55 -0.875821 -0.333574 -0.348805 0.000000 
-0.133510 0.280002 -0.403877 64 61 43 0.861627 0.507237 0.017584 0.000000 
-0.113688 0.242784 -0.489640 68 62 47 0.676694 0.710605 -0.192680 0.000000 
-0.131126 0.275997 -0.415148 60 57 43 0.522907 0.843351 -0.123808 0.000000 
-0.110126 0.238548 -0.492187 81 76 61 0.762721 0.607381 0.222137 0.000000 
-0.101627 0.223291 -0.526575 71 70 56 -0.899068 -0.306601 -0.312526 0.000000 
-0.138806 0.291557 -0.380288 66 61 42 0.957111 0.220256 0.188218 0.000000 
-0.108391 0.227849 -0.505009 100 95 84 0.199074 -0.975587 0.092736 0.000000 
-0.125287 0.259906 -0.449098 67 62 49 -0.109582 0.805064 -0.582978 0.000000 
-0.105115 0.227997 -0.511378 76 70 46 -0.886915 0.223580 -0.404220 0.000000 
-0.138116 0.285204 -0.387690 100 101 95 -0.323418 -0.798189 0.508228 0.000000 
-0.101622 0.231907 -0.510829 115 110 96 0.793978 -0.375247 0.478319 0.000000 
-0.129128 0.272040 -0.423211 65 64 52 0.908521 0.412964 -0.063637 0.000000 
-0.121069 0.258917 -0.456563 87 85 73 0.570445 0.815954 -0.093871 0.000000 
-0.116070 0.248656 -0.470685 73 66 48 -0.304036 -0.499375 0.811287 0.000000 
-0.134500 0.279934 -0.406433 48 42 26 -0.204524 0.887253 -0.413463 0.000000 
-0.122907 0.262859 -0.443183 60 55 38 0.555423 0.819063 -0.143669 0.000000 
-0.102477 0.223477 -0.525866 87 79 62 0.933515 0.217586 0.284968 0.000000 
-0.127143 0.269692 -0.422874 72 69 59 0.974139 0.085407 0.209186 0.000000 
-0.114097 0.247680 -0.471391 74 70 59 0.916785 0.243995 0.316183 0.000000 
-0.115688 0.247480 -0.469010 74 72 61 0.601516 0.773818 -0.198454 0.000000 
-0.141312 0.292408 -0.377846 61 53 36 0.480661 -0.836133 0.264286 0.000000 
-0.140943 0.291075 -0.376239 84 82 71 0.280276 0.771154 -0.571636 0.000000 
-0.097963 0.219100 -0.536612 77 73 57 0.954003 0.242862 0.175773 0.000000 
-0.117306 0.249944 -0.465411 90 90 86 0.859318 0.507207 0.065671 0.000000 
-0.121596 0.257247 -0.451772 72 67 52 -0.769881 -0.628565 0.110404 0.000000 
-0.105425 0.225214 -0.512013 73 76 63 -0.909074 0.308880 -0.279602 0.000000 
-0.127675 0.266016 -0.432005 73 67 53 -0.815920 -0.575528 0.055149 0.000000 
-0.110288 0.244485 -0.490983 91 87 72 0.884984 0.425670 0.188699 0.000000 
-0.108840 0.233876 -0.507639 71 66 50 0.961580 0.088348 0.259921 0.000000 
-0.132036 0.277979 -0.408258 58 60 51 -0.933865 -0.357624 -0.001264 0.000000 
-0.100305 0.215001 -0.525943 104 96 79 -0.411475 -0.843289 0.345764 0.000000 
-0.142426 0.293345 -0.375766 83 78 66 -0.615182 0.755350 -0.225826 0.000000 
-0.139354 0.290860 -0.380162 50 48 32 0.943859 0.322452 -0.071801 0.000000 
-0.133613 0.276075 -0.410873 79 71 53 0.688189 0.642635 -0.336773 0.000000 
-0.125871 0.265713 -0.429754 91 89 78 0.087968 -0.809017 0.581165 0.000000 
-0.102598 0.218122 -0.519366 99 100 89 -0.752641 -0.564885 0.338284 0.000000 
-0.127119 0.267581 -0.435059 54 47 30 -0.272213 -0.920338 0.280854 0.000000 
-0.132650 0.277563 -0.403605 88 84 72 -0.502241 0.742658 -0.442960 0.000000 
-0.096038 0.210663 -0.540682 97 101 100 0.664577 0.536709 -0.519885 0.000000 
-0.101020 0.225080 -0.522766 60 60 46 0.797435 -0.493802 0.346780 0.000000 
-0.131611 0.275427 -0.408210 75 72 59 0.442803 0.663369 -0.603214 0.000000 
-0.098886 0.216099 -0.531460 80 73 51 0.816969 -0.286958 0.500217 0.000000 
-0.131984 0.277662 -0.410104 64 61 45 -0.947570 -0.294533 -0.123944 0.000000 
-0.143394 0.292799 -0.368421 111 108 93 -0.082970 -0.870479 0.485162 0.000000 
-0.094615 0.220240 -0.536616 50 50 44 -0.690961 0.540388 -0.480159 0.000000 
-0.143124 0.293401 -0.369753 83 76 57 -0.573861 -0.753896 0.319883 0.000000 
-0.138957 0.291077 -0.379764 60 55 35 -0.925790 -0.354587 -0.131073 0.000000 
-0.110354 0.237212 -0.498310 70 67 50 -0.681891 -0.652597 0.330367 0.000000 
-0.142843 0.294279 -0.369440 88 84 67 0.537559 -0.775047 0.332163 0.000000 
-0.118867 0.254271 -0.456089 91 94 91 0.673626 -0.654054 0.344153 0.000000 
-0.147036 0.298804 -0.356775 115 103 79 0.230634 0.943252 0.238920 0.000000 
-0.124227 0.261688 -0.443881 68 67 53 -0.260969 0.887294 -0.380269 0.000000 
-0.126688 0.266982 -0.428561 69 65 53 0.095000 -0.910076 0.403407 0.000000 
-0.109382 0.238592 -0.488768 63 60 52 -0.958032 -0.054276 -0.281477 0.000000 
-0.118693 0.254666 -0.456881 76 75 64 -0.845496 -0.299414 0.442140 0.000000 
-0.119041 0.253349 -0.459739 62 57 42 -0.741175 -0.503471 0.444045 0.000000 
-0.131683 0.277314 -0.407296 52 49 34 -0.893327 -0.438998 0.096162 0.000000 
-0.106042 0.229154 -0.510015 77 70 46 0.680911 -0.216583 0.699609 0.000000 
-0.107925 0.230504 -0.511320 85 78 61 0.956606 -0.064963 0.284052 0.000000 
-0.122731 0.261235 -0.445346 71 68 54 0.943267 0.233400 -0.236162 0.000000 
-0.101010 0.227945 -0.518015 87 81 59 0.412821 -0.611770 0.674771 0.000000 
-0.121014 0.256038 -0.457407 71 65 49 -0.357446 -0.915688 0.183707 0.000000 
-0.144616 0.299141 -0.361436 118 114 100 0.458384 0.881289 -0.114951 0.000000 
-0.098425 0.221699 -0.529372 72 68 48 -0.769207 -0.565359 -0.297809 0.000000 
-0.104624 0.221021 -0.515479 100 96 80 0.184674 -0.773799 0.605913 0.000000 
-0.141215 0.294358 -0.371843 69 64 44 -0.749180 -0.585548 -0.309618 0.000000 
-0.126514 0.268676 -0.425656 59 55 42 0.921227 0.373693 0.108138 0.000000 
-0.130803 0.275729 -0.413875 61 63 53 0.913052 0.392100 0.112226 0.000000 
-0.124771 0.265619 -0.436566 62 65 56 -0.764463 -0.639712 0.079783 0.000000 
-0.141098 0.292014 -0.378986 56 51 39 -0.648784 0.665209 -0.369561 0.000000 
-0.098357 0.216466 -0.533917 81 73 51 0.982691 -0.180062 0.043544 0.000000 
-0.134988 0.283518 -0.398643 62 64 54 -0.671016 -0.741060 -0.023815 0.000000 
-0.100129 0.220321 -0.523485 80 76 55 -0.854507 0.042794 -0.517674 0.000000 
-0.125939 0.265318 -0.432085 68 64 51 -0.560626 0.506752 0.654905 0.000000 
-0.138784 0.282929 -0.396133 98 92 78 0.944869 0.266642 0.190068 0.000000 
-0.136467 0.280506 -0.401376 81 75 58 -0.746418 -0.550422 -0.374026 0.000000 
-0.143154 0.297631 -0.365969 117 113 95 -0.331862 0.597351 -0.730096 0.000000 
-0.105437 0.226145 -0.511286 70 72 61 0.777849 -0.238499 0.581438 0.000000 
-0.100942 0.222181 -0.530787 80 74 60 0.909468 0.386135 -0.154171 0.000000 
-0.108607 0.229034 -0.503839 95 90 77 0.376118 0.782907 -0.495572 0.000000 
-0.126027 0.265636 -0.430941 68 65 54 -0.502403 0.831192 -0.238142 0.000000 
-0.130103 0.267932 -0.430018 70 67 53 0.883374 0.408282 -0.230123 0.000000 
-0.142786 0.294147 -0.373929 65 57 37 0.660476 -0.427563 0.617221 0.000000 
-0.109667 0.228835 -0.503666 114 120 118 0.630343 -0.600086 0.492508 0.000000 
-0.107954 0.224247 -0.508884 107 101 88 -0.803350 -0.581430 0.128714 0.000000 
-0.134193 0.281968 -0.400350 50 49 33 0.839291 0.539241 0.069351 0.000000 
-0.136796 0.289451 -0.386332 117 113 94 -0.656558 -0.735772 -0.166044 0.000000 
-0.105193 0.222249 -0.513298 97 94 78 -0.995708 0.086157 -0.033808 0.000000 
-0.120226 0.255300 -0.458109 72 69 53 -0.613240 -0.756798 0.226259 0.000000 
-0.119749 0.255263 -0.454590 65 62 49 -0.037665 -0.970797 0.236928 0.000000 
-0.116642 0.252005 -0.466187 73 68 50 -0.963266 -0.051224 -0.263618 0.000000 
-0.119387 0.254615 -0.452718 70 71 62 0.083337 0.940513 -0.329378 0.000000 
-0.111781 0.245202 -0.481781 79 78 66 -0.890861 -0.441923 -0.105220 0.000000 
-0.108759 0.238442 -0.494126 48 46 31 0.996206 -0.079305 0.035850 0.000000 
-0.135193 0.283700 -0.396514 64 61 42 -0.892963 -0.449799 -0.017249 0.000000 
-0.099988 0.221016 -0.531422 73 71 57 0.892731 0.413705 0.178546 0.000000 
-0.131228 0.276595 -0.415383 85 88 84 -0.453439 -0.836758 0.306967 0.000000 
-0.097955 0.213039 -0.534904 101 93 77 -0.726270 -0.687238 0.015334 0.000000 
-0.138116 0.288207 -0.383912 67 63 49 -0.940464 -0.237547 -0.243104 0.000000 
-0.115384 0.246020 -0.472126 111 113 107 -0.933805 -0.353296 -0.056475 0.000000 
-0.111884 0.238224 -0.486407 113 113 107 -0.911266 0.376733 -0.166331 0.000000 
-0.122219 0.259583 -0.447688 63 58 43 0.670082 -0.009711 -0.742223 0.000000 
-0.116037 0.252383 -0.471509 81 75 54 0.865505 0.493971 -0.083032 0.000000 
-0.109026 0.233774 -0.506881 72 67 52 -0.966758 -0.198011 -0.161773 0.000000 
-0.106247 0.228101 -0.515618 84 77 59 0.966405 0.038067 0.254188 0.000000 
-0.114016 0.246323 -0.478453 72 67 53 -0.265336 -0.962931 0.048583 0.000000 
-0.099092 0.217168 -0.525281 76 74 55 -0.955558 -0.119609 -0.269449 0.000000 
-0.131625 0.276677 -0.412234 68 64 49 -0.829903 -0.492997 -0.261180 0.000000 
-0.114772 0.251070 -0.477839 101 101 95 -0.515107 -0.745507 0.422947 0.000000 
-0.120587 0.257176 -0.460820 65 62 49 -0.200809 0.918596 -0.340379 0.000000 
-0.113514 0.249657 -0.479764 92 91 84 -0.903379 -0.428745 -0.009178 0.000000 
-0.118802 0.251147 -0.469872 59 52 38 -0.713988 -0.700124 -0.006932 0.000000 
-0.128322 0.270446 -0.427030 72 68 55 -0.628056 -0.746498 0.219742 0.000000 
-0.104247 0.225873 -0.520454 85 78 60 -0.898082 -0.421549 -0.125478 0.000000 
-0.136336 0.286263 -0.387596 83 80 67 0.979240 -0.059019 0.193921 0.000000 
-0.126561 0.267327 -0.434102 70 66 50 -0.734023 -0.676566 -0.058894 0.000000 
-0.131701 0.277641 -0.405364 59 56 43 0.842497 0.526379 0.114556 0.000000 
-0.108174 0.232821 -0.501361 84 83 69 0.951081 0.307813 -0.026384 0.000000 
-0.114313 0.247670 -0.470606 61 57 45 -0.699754 0.430490 -0.570108 0.000000 
-0.124941 0.264572 -0.434774 67 63 50 -0.379040 0.572662 0.726903 0.000000 
-0.101401 0.220178 -0.520710 85 84 64 0.914896 0.117649 0.386166 0.000000 
-0.134418 0.282563 -0.395179 48 46 32 0.994870 0.100459 -0.011882 0.000000 
-0.106378 0.238587 -0.499930 74 68 49 -0.843859 -0.458183 -0.279230 0.000000 
-0.130921 0.273941 -0.411971 74 71 58 -0.881790 -0.050583 -0.468921 0.000000 
-0.141076 0.294109 -0.371425 94 96 84 0.887382 0.401470 0.226660 0.000000 
-0.143990 0.297027 -0.361840 117 113 96 0.707476 0.686083 -0.169611 0.000000 
-0.123596 0.263285 -0.444462 59 54 35 0.588999 0.807250 0.037774 0.000000 
-0.147245 0.299165 -0.359862 117 109 91 0.107132 0.978967 -0.173628 0.000000 
-0.121008 0.258872 -0.449780 72 69 57 -0.828576 -0.558418 -0.040384 0.000000 
-0.145460 0.298392 -0.362348 98 87 61 -0.071506 0.859475 -0.506151 0.000000 
-0.094332 0.218133 -0.538258 62 59 43 -0.952344 -0.023777 -0.304099 0.000000 
-0.134406 0.279494 -0.407316 51 44 26 -0.457684 0.773666 -0.438139 0.000000 
-0.126090 0.266735 -0.435218 72 70 57 0.714248 0.690490 -0.114339 0.000000 
-0.132786 0.278764 -0.404998 68 64 44 0.807378 0.566819 0.163881 0.000000 
-0.109479 0.233361 -0.502927 77 72 56 -0.993247 -0.029964 -0.112087 0.000000 
-0.121787 0.256536 -0.455779 72 69 55 0.472508 0.852931 -0.221913 0.000000 
-0.144325 0.293777 -0.369623 116 119 116 -0.569213 -0.809977 0.141189 0.000000 
-0.108064 0.225168 -0.510335 90 83 65 -0.930844 -0.326003 -0.165083 0.000000 
-0.109658 0.240907 -0.489261 72 68 53 0.964429 0.114598 0.238210 0.000000 
-0.124376 0.264857 -0.439233 68 68 54 -0.762118 -0.645742 -0.046834 0.000000 
-0.099591 0.220610 -0.525891 79 76 57 -0.939530 0.003763 -0.342446 0.000000 
-0.118211 0.253253 -0.457235 102 100 92 -0.930796 0.258476 -0.258476 0.000000 
-0.133104 0.276216 -0.407481 71 66 49 -0.527208 -0.839736 -0.129977 0.000000 
-0.113010 0.244346 -0.482722 83 75 56 -0.605786 -0.771419 -0.194772 0.000000 
-0.136964 0.280553 -0.401409 87 82 64 0.870869 0.315709 0.376716 0.000000 
-0.115300 0.250005 -0.470939 84 79 59 -0.957877 -0.251657 -0.138345 0.000000 
-0.107229 0.226020 -0.508803 87 82 65 -0.882122 0.246278 -0.401507 0.000000 
-0.100406 0.217830 -0.527766 74 68 48 -0.972422 0.130246 -0.193473 0.000000 
-0.136697 0.286888 -0.391390 71 70 60 0.706315 0.648656 -0.283487 0.000000 
-0.146866 0.299176 -0.357854 95 87 68 0.284965 0.923630 0.256325 0.000000 
-0.102203 0.224311 -0.519616 80 73 49 -0.963623 0.090619 -0.251435 0.000000 
-0.105332 0.226104 -0.511782 71 73 61 0.909330 -0.139140 0.392122 0.000000 
-0.139686 0.291699 -0.380247 57 54 38 0.820759 0.564001 -0.090875 0.000000 
-0.095915 0.223957 -0.529908 96 93 80 -0.848795 0.381569 -0.365994 0.000000 
-0.127247 0.269381 -0.426084 55 54 44 -0.882188 -0.438907 0.170605 0.000000 
-0.139484 0.292190 -0.380428 56 54 42 0.702239 0.710751 -0.041141 0.000000 
-0.115142 0.247414 -0.477698 70 67 54 -0.453937 -0.877417 0.155180 0.000000 
-0.129366 0.273153 -0.420915 51 49 34 -0.711236 -0.702885 0.009743 0.000000 
-0.116624 0.252580 -0.466915 75 72 53 0.965169 0.188866 0.181051 0.000000 
-0.125528 0.266385 -0.436232 57 51 34 0.643833 0.765155 -0.004136 0.000000 
-0.136628 0.287047 -0.386731 57 54 41 0.945285 0.220887 0.240094 0.000000 
-0.134332 0.274943 -0.415647 89 86 72 -0.555030 -0.812128 0.179969 0.000000 
-0.100570 0.221982 -0.523164 71 67 47 -0.910346 -0.151019 -0.385309 0.000000 
-0.108035 0.226108 -0.508366 89 83 67 0.888850 -0.244842 -0.387295 0.000000 
-0.124445 0.264748 -0.432248 69 70 61 0.957026 0.046653 0.286225 0.000000 
-0.123282 0.262911 -0.440811 70 68 53 0.914295 0.292168 -0.280539 0.000000 
-0.101095 0.220062 -0.527261 84 79 62 -0.914133 -0.271769 -0.300836 0.000000 
-0.116429 0.249590 -0.467731 59 55 41 -0.902610 -0.429371 0.030574 0.000000 
-0.125036 0.265695 -0.432375 74 75 68 0.799798 0.455418 0.391048 0.000000 
-0.107581 0.232531 -0.501912 82 77 60 -0.981781 -0.113423 0.152450 0.000000 
-0.101829 0.221020 -0.519767 88 87 68 0.959241 0.018471 0.281985 0.000000 
-0.104137 0.234768 -0.506326 102 94 71 -0.870178 -0.017538 -0.492426 0.000000 
-0.136331 0.284068 -0.390924 89 91 87 -0.623130 0.521808 -0.582602 0.000000 
-0.097067 0.212619 -0.539409 75 72 61 -0.503909 -0.862059 -0.054139 0.000000 
-0.094968 0.218836 -0.536398 59 59 46 0.907108 0.112866 0.405482 0.000000 
-0.102299 0.218848 -0.518822 87 82 65 -0.025588 -0.879403 0.475390 0.000000 
-0.126656 0.264582 -0.441525 54 48 32 0.437167 -0.835162 0.333751 0.000000 
-0.124792 0.265293 -0.438232 61 57 43 -0.705625 -0.708419 -0.015370 0.000000 
-0.116161 0.251071 -0.462862 60 58 47 0.958313 -0.200701 0.203359 0.000000 
-0.140559 0.292996 -0.374292 82 78 60 -0.976874 -0.125687 -0.172975 0.000000 
-0.132504 0.272657 -0.417243 79 74 63 -0.678844 -0.703699 0.209712 0.000000 
-0.133287 0.279681 -0.399662 71 72 63 0.855678 0.205303 0.475044 0.000000 
-0.125153 0.261344 -0.447085 57 56 47 0.985769 0.103702 -0.132310 0.000000 
-0.140436 0.292391 -0.374554 91 87 70 -0.975341 -0.166950 -0.144355 0.000000 
-0.108053 0.236059 -0.500002 48 45 30 0.679841 -0.707590 0.192699 0.000000 
-0.143372 0.293104 -0.369321 119 118 106 -0.626117 -0.772748 0.104108 0.000000 
-0.131531 0.276367 -0.411801 65 65 52 -0.822802 -0.565057 -0.060896 0.000000 
-0.109211 0.234464 -0.504001 78 72 53 -0.988760 -0.146778 0.028445 0.000000 
-0.132336 0.278223 -0.405916 68 65 47 -0.775295 -0.617557 -0.132440 0.000000 
-0.116842 0.252223 -0.462302 67 65 52 -0.922406 -0.362027 -0.134546 0.000000 
-0.118276 0.255490 -0.464408 73 67 50 -0.832596 -0.549881 -0.066438 0.000000 
-0.103531 0.220267 -0.517497 89 84 69 0.982897 -0.097927 0.155958 0.000000 
-0.116918 0.250005 -0.463199 85 85 78 0.650820 -0.667214 0.362296 0.000000 
-0.110452 0.242565 -0.486778 74 73 62 0.992925 0.098276 0.066647 0.000000 
-0.117431 0.250951 -0.464035 69 64 52 -0.864636 -0.490199 -0.110045 0.000000 
-0.130496 0.274505 -0.418052 72 68 53 0.525654 0.849133 -0.051589 0.000000 
-0.101979 0.223678 -0.526277 75 70 54 0.956769 0.102836 0.272061 0.000000 
-0.118490 0.252353 -0.459722 106 110 104 -0.217934 0.833637 -0.507498 0.000000 
-0.140299 0.292700 -0.378401 67 62 41 0.636575 0.767080 -0.079753 0.000000 
-0.124865 0.264081 -0.434982 71 73 66 0.553967 0.813592 0.176605 0.000000 
-0.101058 0.222939 -0.527706 77 72 54 0.471732 0.825922 0.308741 0.000000 
-0.100155 0.222018 -0.531785 73 71 59 0.910353 0.263638 0.318988 0.000000 
-0.100297 0.230681 -0.521093 104 106 101 0.943238 0.330580 0.031909 0.000000 
-0.134835 0.280740 -0.398228 67 64 48 0.028393 -0.961647 0.272816 0.000000 
-0.108349 0.228364 -0.509967 78 71 53 0.994809 -0.099154 0.022882 0.000000 
-0.105524 0.224734 -0.516601 90 83 63 0.923262 0.336885 0.184652 0.000000 
-0.126767 0.268745 -0.429025 65 68 59 -0.852127 -0.520202 0.057180 0.000000 
-0.111846 0.241804 -0.488514 70 64 46 -0.756551 -0.631728 0.168968 0.000000 
-0.098439 0.219872 -0.535008 76 70 54 0.989311 0.145782 -0.003339 0.000000 
-0.121819 0.260818 -0.450939 78 80 74 0.694904 0.564922 0.444939 0.000000 
-0.116786 0.252499 -0.464463 77 73 56 -0.965944 -0.246221 -0.079548 0.000000 
-0.135137 0.283921 -0.393524 72 76 69 0.928900 0.303055 0.212844 0.000000 
-0.124370 0.265345 -0.439952 57 50 33 0.777540 0.625194 -0.067550 0.000000 
-0.126923 0.269362 -0.424080 51 52 43 -0.961154 -0.191176 -0.199087 0.000000 
-0.098133 0.227396 -0.525130 97 99 93 0.941215 0.313738 0.125226 0.000000 
-0.096556 0.224539 -0.528312 72 74 66 -0.976228 -0.017707 -0.216021 0.000000 
-0.129015 0.272806 -0.417512 70 66 53 0.890804 0.454057 -0.017310 0.000000 
-0.113842 0.247982 -0.475663 87 82 63 -0.961334 -0.156069 0.226891 0.000000 
-0.108151 0.232121 -0.500588 90 88 75 -0.869568 0.307176 -0.386645 0.000000 
-0.111392 0.241885 -0.481413 74 72 62 0.659573 -0.750353 -0.043972 0.000000 
-0.124251 0.264663 -0.433201 68 70 62 -0.774524 -0.554144 -0.305019 0.000000 
-0.098784 0.215792 -0.532816 82 78 56 -0.953794 0.273078 -0.125326 0.000000 
-0.103750 0.223688 -0.519092 87 79 58 0.611615 0.791096 0.009664 0.000000 
-0.095339 0.214410 -0.548330 81 78 65 0.952204 -0.114581 0.283159 0.000000 
-0.138732 0.287690 -0.389339 50 45 28 0.462269 -0.748514 0.475430 0.000000 
-0.123979 0.259674 -0.449694 70 64 49 0.270620 0.875359 -0.400639 0.000000 
-0.107847 0.240021 -0.502322 100 97 83 0.576345 0.741943 -0.342560 0.000000 
-0.107699 0.231801 -0.506635 78 77 63 0.417693 -0.078061 0.905229 0.000000 
-0.106347 0.227929 -0.510009 83 78 56 0.793969 -0.177618 0.581434 0.000000 
-0.113387 0.245154 -0.479152 80 75 58 -0.999643 -0.023248 -0.013140 0.000000 
-0.098653 0.227791 -0.525424 89 86 73 -0.604182 -0.787357 0.122609 0.000000 
-0.107055 0.233133 -0.506159 61 57 38 0.676694 -0.710605 0.192680 0.000000 
-0.098053 0.218163 -0.535574 81 75 57 0.986258 0.031072 0.162266 0.000000 
-0.127121 0.267758 -0.424198 89 87 79 -0.160273 -0.909159 0.384372 0.000000 
-0.133873 0.277634 -0.406422 73 70 49 -0.397898 -0.910868 0.109526 0.000000 
-0.132713 0.279434 -0.400100 79 83 77 -0.876578 -0.427127 0.221749 0.000000 
-0.134563 0.283504 -0.397886 54 51 34 -0.935192 -0.341164 -0.094991 0.000000 
-0.101805 0.222586 -0.519409 84 80 56 0.804402 0.001366 0.594083 0.000000 
-0.097063 0.225057 -0.527276 89 86 71 0.879361 0.001326 0.476155 0.000000 
-0.116336 0.249326 -0.466814 68 65 54 0.403487 0.209813 -0.890605 0.000000 
-0.104594 0.222815 -0.514505 90 86 68 -0.893362 -0.311707 -0.323639 0.000000 
-0.117345 0.249397 -0.468927 75 71 56 0.751462 0.651463 -0.104411 0.000000 
-0.117922 0.252276 -0.460396 84 85 79 0.403411 -0.827388 0.390755 0.000000 
-0.119866 0.256490 -0.451167 91 91 82 -0.610164 0.215809 -0.762317 0.000000 
-0.121022 0.257446 -0.448660 87 85 76 -0.131846 -0.897401 0.421056 0.000000 
-0.112625 0.246832 -0.480718 89 83 64 0.948959 0.305906 0.076802 0.000000 
-0.111502 0.241968 -0.483742 76 74 61 -0.979636 -0.034352 0.197822 0.000000 
-0.107613 0.231727 -0.506484 84 76 54 -0.646536 0.449401 -0.616465 0.000000 
-0.127917 0.269567 -0.421738 97 95 88 -0.536561 0.376734 -0.755099 0.000000 
-0.138119 0.289035 -0.386003 68 70 63 0.680486 0.729608 0.067904 0.000000 
-0.109917 0.237430 -0.489846 106 108 105 -0.520038 -0.644578 0.560429 0.000000 
-0.096527 0.213878 -0.546359 104 99 86 0.978623 0.071547 0.192814 0.000000 
-0.128917 0.271516 -0.424029 71 68 55 -0.889655 -0.454952 0.039150 0.000000 
-0.134704 0.278103 -0.403724 92 88 67 -0.374862 -0.796381 0.474611 0.000000 
-0.133614 0.280918 -0.401684 50 48 32 0.927399 0.356482 0.113364 0.000000 
-0.107467 0.233605 -0.504375 56 54 40 -0.790494 0.467183 -0.396055 0.000000 
-0.128990 0.269661 -0.422816 71 68 56 -0.659335 0.748785 0.067809 0.000000 
-0.102080 0.225232 -0.519648 68 66 47 0.824310 -0.544074 0.156514 0.000000 
-0.121977 0.256037 -0.459724 63 61 51 -0.826195 -0.556065 -0.090522 0.000000 
-0.121047 0.256380 -0.453468 67 66 53 -0.746399 -0.664563 -0.035274 0.000000 
-0.108803 0.235338 -0.497510 90 86 70 0.884861 0.412147 0.217153 0.000000 
-0.139479 0.291327 -0.377891 85 89 82 -0.908361 -0.412892 -0.066333 0.000000 
-0.111056 0.240520 -0.489078 75 69 53 -0.778245 -0.605973 0.164716 0.000000 
-0.126749 0.269445 -0.423908 50 48 37 -0.938582 -0.305553 -0.160313 0.000000 
-0.113296 0.248636 -0.481083 88 87 76 -0.777286 -0.623281 0.085719 0.000000 
-0.134897 0.283095 -0.394278 73 77 71 0.976887 0.143476 0.158448 0.000000 
-0.138423 0.289335 -0.382075 55 53 39 -0.948384 -0.313568 -0.047355 0.000000 
-0.141759 0.295970 -0.367036 107 102 86 0.936448 0.196195 -0.290814 0.000000 
-0.108805 0.231413 -0.506288 80 72 52 0.795016 -0.018037 -0.606321 0.000000 
-0.145912 0.298387 -0.361606 95 84 55 0.660777 0.725468 -0.192534 0.000000 
-0.110351 0.235980 -0.501711 88 83 70 0.849276 0.463659 0.252488 0.000000 
-0.107751 0.231779 -0.502001 75 73 60 0.892607 0.047407 0.448335 0.000000 
-0.105159 0.237052 -0.504850 93 85 62 0.912898 0.382828 0.141632 0.000000 
-0.109947 0.241674 -0.489608 85 81 63 0.939641 0.056040 0.337541 0.000000 
-0.117749 0.252647 -0.460143 82 67 52 -0.698050 0.646462 -0.307916 0.000000 
-0.101928 0.223641 -0.525938 74 70 53 0.590332 -0.037860 0.806272 0.000000 
-0.121864 0.260299 -0.450932 76 70 55 -0.566411 -0.816855 -0.109205 0.000000 
-0.106366 0.227978 -0.516457 88 81 66 -0.901545 -0.061191 -0.428336 0.000000 
-0.108710 0.228563 -0.507028 86 80 66 -0.998794 0.046576 0.015525 0.000000 
-0.131249 0.275977 -0.408671 72 69 55 -0.941215 -0.125226 -0.313738 0.000000 
-0.115325 0.251157 -0.475076 88 86 73 -0.980932 -0.145731 -0.128587 0.000000 
-0.099400 0.215365 -0.530980 81 73 52 -0.932064 -0.141388 -0.333566 0.000000 
-0.132915 0.279212 -0.403694 66 62 43 0.934878 0.352367 -0.042908 0.000000 
-0.113878 0.249055 -0.477188 74 69 50 -0.922867 -0.346953 -0.167155 0.000000 
-0.128884 0.268608 -0.432007 53 49 36 -0.478389 0.830558 -0.285163 0.000000 
-0.124446 0.261745 -0.443093 70 65 51 -0.481320 -0.838082 0.256807 0.000000 
-0.105755 0.233140 -0.508174 33 29 16 0.199020 -0.757511 0.621746 0.000000 
-0.112871 0.246963 -0.480001 90 84 65 -0.968187 -0.201866 -0.147864 0.000000 
-0.129141 0.273278 -0.416735 55 52 41 0.883270 0.464371 -0.064764 0.000000 
-0.142664 0.293260 -0.374363 81 74 60 -0.987713 0.040338 -0.150981 0.000000 
-0.126900 0.268028 -0.431693 72 71 56 0.864589 0.495059 -0.086036 0.000000 
-0.105700 0.236726 -0.500104 93 86 67 0.920472 -0.233339 0.313504 0.000000 
-0.109215 0.233693 -0.503819 74 68 49 -0.995375 -0.031686 -0.090687 0.000000 
-0.102753 0.234490 -0.510153 93 86 64 -0.959042 -0.200298 -0.200298 0.000000 
-0.132901 0.279566 -0.402292 44 42 28 -0.857728 -0.501419 0.113502 0.000000 
-0.136694 0.286911 -0.391006 70 67 53 -0.771898 -0.623741 0.122970 0.000000 
-0.107917 0.230665 -0.502490 92 88 72 -0.836029 0.213938 -0.505259 0.000000 
-0.097436 0.217858 -0.537679 79 74 57 -0.941124 -0.148455 -0.303720 0.000000 
-0.131828 0.277682 -0.411895 55 48 33 0.805103 0.591533 -0.043557 0.000000 
-0.133424 0.280107 -0.402244 63 59 42 -0.827515 -0.554075 0.090667 0.000000 
-0.134777 0.282757 -0.395245 71 70 55 0.998323 0.057136 0.009350 0.000000 
-0.117474 0.249784 -0.474839 67 63 51 0.850027 0.524484 0.048692 0.000000 
-0.126876 0.268624 -0.429127 65 62 48 0.851701 0.519467 -0.068981 0.000000 
-0.102311 0.234201 -0.510527 83 80 67 0.971634 0.198887 0.127947 0.000000 
-0.109082 0.233313 -0.497588 89 86 76 0.949528 0.284458 0.132213 0.000000 
-0.144579 0.296652 -0.365627 84 81 68 -0.055649 -0.996229 0.066561 0.000000 
-0.101199 0.220911 -0.521470 85 82 60 -0.910832 -0.169094 -0.376553 0.000000 
-0.102635 0.233269 -0.510476 86 84 70 0.915175 -0.066044 0.397609 0.000000 
-0.131759 0.271195 -0.422471 77 70 54 0.764442 0.644255 -0.023758 0.000000 
-0.144238 0.297040 -0.366127 100 100 90 -0.449140 -0.876335 0.174097 0.000000 
-0.116950 0.249870 -0.471431 69 64 47 0.585252 0.806698 -0.081964 0.000000 
-0.105790 0.222216 -0.513169 102 97 83 0.977451 0.117990 0.175122 0.000000 
-0.133956 0.277578 -0.405930 77 72 55 -0.396359 -0.900817 0.177281 0.000000 
-0.109226 0.233880 -0.504189 72 67 48 -0.993950 -0.108252 0.018589 0.000000 
-0.099401 0.218909 -0.525833 74 68 47 -0.933421 -0.103713 -0.343466 0.000000 
-0.138262 0.288364 -0.383468 77 77 66 0.952358 0.286886 -0.103489 0.000000 
-0.113000 0.246941 -0.476238 65 61 43 0.979457 0.198266 0.036804 0.000000 
-0.102888 0.230731 -0.511394 88 83 60 -0.398293 0.749053 -0.529418 0.000000 
-0.142933 0.296618 -0.366016 88 77 49 -0.574577 -0.719456 -0.390185 0.000000 
-0.136232 0.281660 -0.401240 48 42 28 0.754906 -0.529902 0.386421 0.000000 
-0.123425 0.264061 -0.442800 59 53 36 -0.868867 -0.463102 0.174949 0.000000 
-0.140301 0.287644 -0.385148 62 59 48 -0.948558 -0.316186 0.016247 0.000000 
-0.114167 0.246739 -0.473614 70 67 55 0.358973 0.926777 -0.110558 0.000000 
-0.118731 0.252049 -0.466693 69 66 51 -0.488870 -0.823113 0.288949 0.000000 
-0.135735 0.283290 -0.391054 76 75 60 0.848522 0.167335 0.502005 0.000000 
-0.122838 0.261670 -0.447458 63 59 43 0.872953 0.471595 -0.124708 0.000000 
-0.120238 0.255889 -0.453275 70 66 52 0.297727 0.778549 -0.552467 0.000000 
-0.130380 0.274494 -0.412824 71 70 57 -0.949165 -0.253925 -0.186031 0.000000 
-0.141199 0.294790 -0.371899 91 94 89 0.573673 0.696722 0.430671 0.000000 
-0.120372 0.257388 -0.455202 84 78 57 0.804279 0.564060 0.187006 0.000000 
