ply
format ascii 1.0
comment Created by Open3D
obj_info Generated by CloudCompare!
element vertex 607
property float x
property float y
property float z
property uchar red
property uchar green
property uchar blue
property float nx
property float ny
property float nz
property float scalar_leaf8
end_header
-0.127867 -0.075794 -0.081218 96 84 69 0.001127 -0.985809 -0.167869 0.000000 
-0.145920 -0.062404 -0.124212 107 88 67 0.148935 0.988796 0.010078 0.000000 
-0.039290 -0.103680 0.091969 127 124 119 0.538023 -0.813932 -0.219194 0.000000 
-0.099954 -0.085590 -0.026669 103 87 72 0.289014 -0.876120 -0.385856 0.000000 
-0.152145 -0.066727 -0.130210 93 79 61 0.159945 -0.958349 -0.236613 0.000000 
-0.097242 -0.082439 -0.023598 135 122 106 -0.352375 -0.918439 -0.179725 0.000000 
-0.148683 -0.066498 -0.127670 95 79 63 0.290075 -0.924524 -0.247207 0.000000 
-0.106982 -0.080035 -0.044183 89 71 54 -0.594557 -0.781025 0.191053 0.000000 
-0.080001 -0.091045 0.014275 114 99 88 -0.993320 0.100119 0.057372 0.000000 
-0.130194 -0.071130 -0.093728 107 98 84 0.980155 0.182946 -0.076329 0.000000 
-0.041150 -0.103242 0.090424 100 89 82 -0.826818 -0.476710 0.298530 0.000000 
-0.147084 -0.066595 -0.125968 90 76 63 0.260057 -0.893109 -0.367051 0.000000 
-0.082423 -0.092443 0.008912 136 123 108 -0.720120 -0.407024 0.561924 0.000000 
-0.138384 -0.070083 -0.109092 70 62 48 0.214771 -0.827096 -0.519410 0.000000 
-0.130846 -0.070935 -0.093469 101 83 65 0.625291 0.746919 0.226103 0.000000 
-0.087429 -0.086134 -0.002693 139 131 117 0.360005 -0.834771 -0.416599 0.000000 
-0.077725 -0.089857 0.013866 102 95 84 0.635164 0.764849 -0.107580 0.000000 
-0.054722 -0.100579 0.065232 109 96 83 0.127696 -0.972260 -0.195969 0.000000 
-0.101067 -0.086016 -0.025832 133 115 100 -0.244002 -0.964509 -0.100922 0.000000 
-0.092987 -0.084998 -0.016020 82 66 52 0.700802 0.709508 -0.073998 0.000000 
-0.149806 -0.068323 -0.123004 117 102 79 0.600294 0.705551 -0.376623 0.000000 
-0.111974 -0.080786 -0.047463 118 99 80 -0.534534 0.761995 0.365563 0.000000 
-0.142332 -0.065279 -0.117934 108 97 84 0.747203 0.647576 -0.149441 0.000000 
-0.035624 -0.103752 0.099215 154 151 148 -0.965503 -0.201417 0.165032 0.000000 
-0.131954 -0.072668 -0.094570 67 57 46 -0.403459 0.818080 0.409837 0.000000 
-0.044683 -0.102759 0.087207 165 160 150 -0.559893 0.373806 0.739451 0.000000 
-0.082260 -0.088643 0.008223 119 107 93 -0.307467 0.779023 0.546431 0.000000 
-0.133766 -0.072446 -0.090382 138 127 111 -0.709718 0.691713 0.133541 0.000000 
-0.090150 -0.088681 -0.005270 125 118 112 -0.904693 -0.069382 0.420376 0.000000 
-0.124313 -0.075703 -0.073036 108 86 67 -0.735142 0.520381 0.434477 0.000000 
-0.049368 -0.103487 0.075949 103 98 93 -0.072810 -0.973683 -0.215963 0.000000 
-0.065898 -0.096761 0.037776 75 63 56 0.818176 -0.502169 -0.280026 0.000000 
-0.056960 -0.099735 0.062844 154 147 136 0.937313 0.178076 -0.299554 0.000000 
-0.051488 -0.101352 0.067575 112 108 97 0.667486 -0.702201 -0.247743 0.000000 
-0.139604 -0.067576 -0.115983 107 95 76 -0.862965 -0.210881 0.459151 0.000000 
-0.090229 -0.088005 -0.009510 80 64 51 0.538303 -0.578802 -0.612551 0.000000 
-0.132548 -0.072165 -0.096076 69 58 46 0.514597 -0.771085 -0.374991 0.000000 
-0.058794 -0.099373 0.053593 69 56 47 -0.741037 0.586049 0.327735 0.000000 
-0.120530 -0.079044 -0.067868 90 73 58 -0.242823 0.945228 0.218130 0.000000 
-0.124745 -0.078325 -0.073336 105 92 82 -0.490587 -0.860348 -0.138296 0.000000 
-0.069897 -0.093524 0.030461 109 101 88 -0.335760 -0.904646 -0.262450 0.000000 
-0.046306 -0.103720 0.084881 175 161 150 -0.773371 -0.402153 0.490073 0.000000 
-0.130086 -0.073388 -0.085200 120 100 81 0.051859 -0.831146 -0.553630 0.000000 
-0.125186 -0.075253 -0.075811 119 98 75 0.555297 -0.735482 -0.388216 0.000000 
-0.135685 -0.071438 -0.093030 145 136 126 0.863067 0.485928 -0.137801 0.000000 
-0.137055 -0.071365 -0.104252 96 84 68 0.150659 -0.981120 -0.121262 0.000000 
-0.064955 -0.097727 0.047912 150 132 110 -0.039703 0.975728 0.215358 0.000000 
-0.115921 -0.077116 -0.061645 110 101 94 -0.603724 -0.777085 0.177924 0.000000 
-0.142643 -0.066471 -0.111874 116 100 82 -0.846980 0.375916 0.375916 0.000000 
-0.108449 -0.083050 -0.039575 107 99 94 -0.883525 -0.274508 0.379511 0.000000 
-0.116904 -0.077335 -0.064762 80 69 63 0.924386 0.193345 -0.328828 0.000000 
-0.105333 -0.084729 -0.035052 126 109 93 0.508561 0.815263 -0.276970 0.000000 
-0.105924 -0.082245 -0.042419 89 78 68 -0.413218 0.870330 0.267910 0.000000 
-0.146691 -0.061602 -0.126756 143 129 109 -0.142071 -0.963217 -0.228096 0.000000 
-0.062511 -0.096869 0.044622 118 102 89 -0.683948 -0.724780 0.083124 0.000000 
-0.062903 -0.097431 0.049189 145 140 134 0.480574 -0.859119 -0.175964 0.000000 
-0.097730 -0.083080 -0.022038 116 101 89 -0.542709 0.759792 0.358026 0.000000 
-0.096176 -0.087272 -0.016580 132 114 99 -0.838378 -0.333784 0.430942 0.000000 
-0.087923 -0.089064 -0.001863 125 111 98 0.868637 -0.219776 -0.444036 0.000000 
-0.061875 -0.097086 0.047160 126 121 112 0.390359 0.914516 -0.106211 0.000000 
-0.066179 -0.097237 0.042609 119 113 107 -0.971925 -0.032599 0.233021 0.000000 
-0.090583 -0.090304 -0.006692 149 132 111 -0.239992 -0.970715 0.010746 0.000000 
-0.068566 -0.094214 0.037153 143 138 129 0.341911 -0.827205 -0.445903 0.000000 
-0.090617 -0.086906 -0.005532 125 113 100 -0.817742 0.363617 0.446185 0.000000 
-0.040421 -0.104804 0.093943 136 121 112 -0.338795 0.940819 -0.008816 0.000000 
-0.047975 -0.103247 0.078011 89 81 75 0.421675 -0.877621 -0.227973 0.000000 
-0.038399 -0.104319 0.095751 110 98 84 0.550422 -0.746418 -0.374026 0.000000 
-0.100080 -0.084244 -0.030092 78 63 48 0.276742 -0.887070 -0.369488 0.000000 
-0.053975 -0.101630 0.065037 88 77 65 0.310144 -0.935945 -0.166788 0.000000 
-0.130307 -0.071895 -0.089764 134 111 86 -0.118484 -0.991878 -0.046265 0.000000 
-0.057726 -0.099945 0.061540 146 138 127 -0.878393 -0.414506 0.237929 0.000000 
-0.152826 -0.067827 -0.127147 129 118 104 -0.056058 -0.981609 -0.182486 0.000000 
-0.083236 -0.091881 0.004774 99 92 80 -0.506129 0.769771 0.388954 0.000000 
-0.083048 -0.090636 0.002797 90 75 62 -0.729602 0.504600 0.461585 0.000000 
-0.093183 -0.087796 -0.010863 134 113 88 0.819413 0.475228 -0.320502 0.000000 
-0.073787 -0.095028 0.023259 81 70 56 0.180389 -0.955395 -0.233838 0.000000 
-0.132672 -0.073221 -0.087466 116 99 84 0.863816 0.469690 -0.182246 0.000000 
-0.055149 -0.102970 0.062957 160 148 132 -0.024772 0.996247 0.082931 0.000000 
-0.084804 -0.087240 -0.002327 112 104 92 -0.820487 -0.433255 0.372949 0.000000 
-0.138952 -0.068580 -0.113216 98 86 69 0.671562 -0.561030 -0.483993 0.000000 
-0.116410 -0.078504 -0.057969 144 125 103 0.820884 -0.442992 -0.360427 0.000000 
-0.038944 -0.103402 0.092986 99 87 79 0.320612 -0.792758 -0.518403 0.000000 
-0.135103 -0.070238 -0.095776 106 91 74 0.320965 -0.894222 -0.312007 0.000000 
-0.068999 -0.094892 0.036357 144 129 113 0.881334 -0.337114 -0.331067 0.000000 
-0.036491 -0.104948 0.100066 101 94 92 0.399163 -0.852687 -0.337037 0.000000 
-0.135194 -0.071722 -0.097193 78 65 52 -0.710394 -0.679708 0.182585 0.000000 
-0.082617 -0.089790 0.009090 131 119 106 0.792315 -0.227926 -0.565939 0.000000 
-0.142744 -0.064947 -0.116084 127 117 102 0.258341 0.955200 0.144406 0.000000 
-0.063592 -0.097452 0.047543 134 125 114 -0.747382 0.507563 0.428718 0.000000 
-0.090243 -0.086378 -0.012279 81 67 57 -0.785828 0.471497 0.400205 0.000000 
-0.035183 -0.103880 0.103876 164 160 154 -0.066856 0.899144 0.432517 0.000000 
-0.061754 -0.097316 0.045953 88 76 67 -0.750756 -0.641995 0.155589 0.000000 
-0.114359 -0.082452 -0.051987 129 114 97 -0.865887 -0.421530 0.269353 0.000000 
-0.100322 -0.083897 -0.030595 78 63 51 -0.279310 0.819206 0.500886 0.000000 
-0.138726 -0.067231 -0.107090 147 135 119 0.470686 0.834186 0.287382 0.000000 
-0.135673 -0.070935 -0.103528 73 62 48 -0.419432 0.864793 0.276063 0.000000 
-0.138484 -0.069262 -0.110521 77 67 54 0.509612 -0.752129 -0.417849 0.000000 
-0.076213 -0.091644 0.021130 110 98 84 -0.815149 0.263404 0.515897 0.000000 
-0.112034 -0.080261 -0.054492 84 71 52 -0.478821 0.705719 0.522199 0.000000 
-0.116562 -0.076825 -0.063357 74 62 50 -0.889123 -0.360132 0.282427 0.000000 
-0.129697 -0.072056 -0.090433 99 85 72 0.803493 0.538262 -0.254309 0.000000 
-0.096511 -0.083051 -0.022572 117 95 77 0.323702 0.945917 -0.021412 0.000000 
-0.135029 -0.070110 -0.096342 139 118 94 -0.369134 0.927467 0.059538 0.000000 
-0.079587 -0.093363 0.013544 128 116 105 -0.645634 -0.763276 -0.023809 0.000000 
-0.145642 -0.068840 -0.116747 97 90 73 -0.821066 -0.417680 0.389093 0.000000 
-0.131232 -0.074388 -0.084892 111 104 92 -0.636108 -0.685165 0.354847 0.000000 
-0.117901 -0.076780 -0.065790 86 72 58 0.719842 0.470474 -0.510373 0.000000 
-0.082155 -0.091864 0.008938 118 102 83 0.690312 0.499766 -0.523166 0.000000 
-0.060600 -0.100478 0.051713 89 78 71 -0.215818 0.976433 -0.001167 0.000000 
-0.053820 -0.103524 0.070451 129 126 120 -0.613327 0.525468 0.589673 0.000000 
-0.052612 -0.100040 0.068234 145 140 131 -0.247939 0.949754 0.191035 0.000000 
-0.038777 -0.105018 0.096607 105 97 87 -0.078196 0.971866 0.222176 0.000000 
-0.125213 -0.073347 -0.082060 95 84 71 -0.077494 -0.961686 0.262971 0.000000 
-0.107242 -0.079892 -0.042610 95 83 69 -0.075886 0.981700 0.174658 0.000000 
-0.078179 -0.090486 0.011413 76 65 57 -0.758601 0.095008 0.644592 0.000000 
-0.139123 -0.067591 -0.113136 103 89 70 -0.819785 -0.520278 0.239297 0.000000 
-0.053982 -0.102507 0.067291 106 89 76 0.343987 -0.917775 -0.198399 0.000000 
-0.140637 -0.065108 -0.114817 141 126 109 0.459983 0.864887 0.200963 0.000000 
-0.083049 -0.090546 0.007717 113 99 86 -0.939720 -0.008830 0.341831 0.000000 
-0.118974 -0.080222 -0.060400 121 106 91 0.630552 0.748296 -0.206053 0.000000 
-0.088084 -0.086754 -0.008527 73 60 49 -0.722319 0.101507 0.684070 0.000000 
-0.088925 -0.085648 -0.008172 87 72 57 0.420858 0.901442 0.101395 0.000000 
-0.096228 -0.087478 -0.018793 83 65 53 -0.494929 0.811178 0.311505 0.000000 
-0.103162 -0.080503 -0.034563 151 139 127 -0.078688 -0.987708 -0.135061 0.000000 
-0.141243 -0.065697 -0.113847 115 102 88 -0.343611 -0.934570 0.092254 0.000000 
-0.061697 -0.100731 0.052155 129 118 106 -0.196367 -0.875532 0.441457 0.000000 
-0.051115 -0.101583 0.069829 76 64 54 -0.480829 0.840299 0.250400 0.000000 
-0.107281 -0.083350 -0.036690 119 105 90 -0.873136 -0.034054 0.486286 0.000000 
-0.035902 -0.104060 0.098980 137 135 131 -0.740196 0.574262 0.349763 0.000000 
-0.041598 -0.105425 0.092571 129 119 107 -0.826386 0.404469 0.391780 0.000000 
-0.133855 -0.072546 -0.092075 77 67 54 0.794631 0.604826 0.052409 0.000000 
-0.078963 -0.090324 0.016316 140 125 104 0.846947 -0.382140 -0.369662 0.000000 
-0.117912 -0.079002 -0.064545 74 57 44 0.515472 -0.814477 -0.266301 0.000000 
-0.118773 -0.080109 -0.059953 112 103 95 0.352384 0.893599 -0.278041 0.000000 
-0.138679 -0.070296 -0.105010 92 80 67 -0.705512 -0.667801 0.237266 0.000000 
-0.148147 -0.068300 -0.121401 77 68 57 0.504738 0.825795 -0.251597 0.000000 
-0.141854 -0.067520 -0.119974 111 100 88 0.745353 -0.442605 -0.498547 0.000000 
-0.075903 -0.090906 0.018603 88 78 68 -0.228115 -0.973370 0.022692 0.000000 
-0.133775 -0.070340 -0.096314 105 92 79 0.124178 0.979897 0.156144 0.000000 
-0.100725 -0.081982 -0.031100 88 78 71 -0.547052 -0.818318 0.176323 0.000000 
-0.088511 -0.085587 -0.010696 110 99 86 -0.585848 -0.707968 0.394416 0.000000 
-0.103543 -0.084120 -0.028861 150 138 126 0.903857 0.014472 -0.427589 0.000000 
-0.130290 -0.073107 -0.092632 101 95 87 -0.764226 0.516545 0.386187 0.000000 
-0.065417 -0.095851 0.037025 106 96 84 0.790654 -0.197281 -0.579609 0.000000 
-0.144988 -0.063332 -0.124281 102 91 80 -0.878137 -0.272629 0.393128 0.000000 
-0.091101 -0.087581 -0.011480 78 64 54 -0.643835 0.623768 0.443159 0.000000 
-0.089868 -0.087397 -0.010033 75 61 53 -0.514538 0.732927 0.445050 0.000000 
-0.137191 -0.069505 -0.100214 142 130 111 0.677093 -0.711024 -0.189709 0.000000 
-0.040862 -0.105759 0.092417 159 150 136 -0.555676 0.820985 0.131181 0.000000 
-0.111188 -0.078989 -0.054280 107 96 84 0.803827 0.481018 -0.349976 0.000000 
-0.117457 -0.080614 -0.060404 96 80 66 -0.118414 0.932344 0.341633 0.000000 
-0.087067 -0.089017 -0.000032 134 125 114 -0.910817 0.054998 0.409130 0.000000 
-0.149350 -0.061025 -0.132438 134 128 119 -0.630348 -0.188644 0.753044 0.000000 
-0.119737 -0.078238 -0.069423 95 82 71 0.656110 -0.665927 -0.355052 0.000000 
-0.105014 -0.080889 -0.036190 149 131 115 0.368427 -0.890490 -0.266998 0.000000 
-0.071298 -0.094698 0.031551 111 99 86 -0.948277 -0.241504 0.206028 0.000000 
-0.123126 -0.079065 -0.070852 100 88 76 -0.210959 -0.886617 -0.411591 0.000000 
-0.062720 -0.098740 0.051812 137 127 114 -0.863312 0.188710 0.468061 0.000000 
-0.056746 -0.098570 0.054011 125 116 104 -0.838295 0.477041 0.263994 0.000000 
-0.116151 -0.076693 -0.063687 102 88 73 0.607414 0.617510 -0.499729 0.000000 
-0.132709 -0.070558 -0.099845 103 95 79 0.571948 -0.725996 -0.381845 0.000000 
-0.098820 -0.086761 -0.021594 142 128 118 -0.671016 -0.741060 -0.023815 0.000000 
-0.113398 -0.080688 -0.051184 119 93 74 0.688193 -0.578215 -0.438244 0.000000 
-0.109258 -0.079224 -0.047740 125 120 109 -0.226114 -0.973379 0.037484 0.000000 
-0.103081 -0.083283 -0.030899 142 116 94 -0.575507 0.656045 0.488258 0.000000 
-0.152265 -0.066204 -0.130780 82 66 49 0.603632 0.774788 0.187966 0.000000 
-0.098275 -0.083544 -0.029373 96 83 70 0.742769 -0.114158 -0.659745 0.000000 
-0.116780 -0.080876 -0.058940 112 97 84 -0.159587 -0.971565 -0.174907 0.000000 
-0.037489 -0.104958 0.096923 109 100 93 0.493869 -0.713366 -0.497195 0.000000 
-0.081014 -0.090745 0.007480 81 67 53 0.772748 -0.483171 -0.411590 0.000000 
-0.049906 -0.101429 0.070811 98 92 90 -0.747382 0.428718 0.507563 0.000000 
-0.145830 -0.062140 -0.125982 118 109 97 0.774168 0.624329 0.104300 0.000000 
-0.148065 -0.067728 -0.120464 93 79 65 -0.746092 -0.006921 0.665807 0.000000 
-0.102304 -0.084587 -0.027841 146 129 115 0.789032 0.116511 -0.603204 0.000000 
-0.066478 -0.096662 0.042485 140 130 118 0.350181 -0.448421 -0.822370 0.000000 
-0.046552 -0.101656 0.079656 142 143 138 0.191819 0.939773 -0.282898 0.000000 
-0.149595 -0.065285 -0.130972 109 93 76 -0.395698 0.805813 0.440554 0.000000 
-0.124191 -0.076683 -0.077189 69 60 52 0.174334 -0.897606 -0.404859 0.000000 
-0.128341 -0.075869 -0.080623 114 101 87 0.118545 0.992948 0.001088 0.000000 
-0.092778 -0.086208 -0.017642 80 68 55 0.868595 -0.294620 -0.398424 0.000000 
-0.055860 -0.101612 0.066184 156 147 134 0.907926 -0.173006 -0.381758 0.000000 
-0.073234 -0.093496 0.027418 104 93 85 0.877091 -0.109459 -0.467687 0.000000 
-0.131408 -0.071826 -0.095569 75 65 56 0.619151 -0.665629 -0.416641 0.000000 
-0.121683 -0.075850 -0.069284 118 98 79 0.527196 -0.732125 -0.431343 0.000000 
-0.105983 -0.079330 -0.036669 121 111 96 0.141524 0.985908 -0.089196 0.000000 
-0.059716 -0.100019 0.056436 136 125 114 0.946024 0.290150 -0.144400 0.000000 
-0.118010 -0.077864 -0.062513 138 115 94 -0.543337 0.355196 0.760671 0.000000 
-0.117340 -0.080678 -0.060047 87 71 60 -0.150591 0.942892 0.297113 0.000000 
-0.093209 -0.086952 -0.014844 68 51 38 -0.585758 0.771065 0.249693 0.000000 
-0.088245 -0.089441 -0.005413 94 86 73 -0.589188 0.541918 0.599318 0.000000 
-0.134644 -0.071128 -0.092480 123 115 106 0.621707 -0.380940 -0.684372 0.000000 
-0.063076 -0.099090 0.048661 131 119 107 0.932007 0.354987 -0.073125 0.000000 
-0.125281 -0.077649 -0.073225 120 109 96 -0.918779 -0.387209 0.076902 0.000000 
-0.145607 -0.062318 -0.125225 119 111 102 -0.693502 -0.711322 -0.114346 0.000000 
-0.104898 -0.080358 -0.038367 147 125 102 0.015374 0.999310 0.033823 0.000000 
-0.129812 -0.074831 -0.082224 118 101 82 0.780479 0.103966 -0.616476 0.000000 
-0.040118 -0.102289 0.095935 158 154 147 -0.823797 0.026306 0.566274 0.000000 
-0.049505 -0.101568 0.076215 117 107 98 -0.848329 0.423389 0.317930 0.000000 
-0.131202 -0.072773 -0.086786 128 106 87 -0.230557 0.835198 0.499287 0.000000 
-0.078973 -0.090048 0.015472 125 116 108 -0.413284 0.858831 0.302665 0.000000 
-0.088498 -0.089292 -0.006074 84 70 58 0.630079 -0.538861 -0.559132 0.000000 
-0.067956 -0.095160 0.039290 146 140 133 -0.589491 0.521927 0.616516 0.000000 
-0.129715 -0.071987 -0.088378 143 131 114 0.157663 0.970332 0.183299 0.000000 
-0.132335 -0.073135 -0.087272 118 105 91 0.727819 -0.247869 -0.639407 0.000000 
-0.105974 -0.085812 -0.034382 126 115 101 0.794905 0.602288 0.073310 0.000000 
-0.130571 -0.071875 -0.093749 75 64 51 0.937123 -0.204691 -0.282669 0.000000 
-0.034729 -0.103318 0.103112 157 153 146 -0.126221 -0.949983 -0.285659 0.000000 
-0.132792 -0.071591 -0.097639 75 64 50 0.487636 -0.756903 -0.435096 0.000000 
-0.130298 -0.072193 -0.092905 76 65 51 0.968988 -0.040426 -0.243778 0.000000 
-0.033720 -0.105054 0.105614 133 129 123 -0.187139 -0.842872 -0.504525 0.000000 
-0.054063 -0.100491 0.064603 99 89 77 0.602719 0.749025 -0.275120 0.000000 
-0.111981 -0.081414 -0.045059 134 113 92 0.931442 -0.293622 -0.214948 0.000000 
-0.047208 -0.103642 0.081170 159 148 140 0.373617 0.923927 -0.082277 0.000000 
-0.118922 -0.075667 -0.065739 139 121 102 -0.360669 -0.847805 -0.388773 0.000000 
-0.128612 -0.074579 -0.087662 72 59 41 -0.393087 0.852983 0.343369 0.000000 
-0.080519 -0.093903 0.013112 120 109 98 -0.595724 0.599099 0.534970 0.000000 
-0.067844 -0.097836 0.037562 129 113 93 -0.501450 -0.808331 0.308463 0.000000 
-0.130545 -0.073183 -0.085692 112 96 79 0.262386 -0.824420 -0.501483 0.000000 
-0.073142 -0.093200 0.022439 69 57 49 0.813932 -0.219194 -0.538023 0.000000 
-0.061869 -0.100138 0.050386 121 104 94 -0.286829 -0.946670 -0.146781 0.000000 
-0.096539 -0.084180 -0.024904 78 66 55 0.702497 -0.603786 -0.376749 0.000000 
-0.096564 -0.083779 -0.020027 110 86 66 0.676875 -0.640819 -0.362202 0.000000 
-0.050627 -0.099926 0.067928 110 100 89 0.902995 -0.113049 -0.414512 0.000000 
-0.089713 -0.085886 -0.010684 102 95 80 0.767381 0.534743 -0.353803 0.000000 
-0.129927 -0.072021 -0.090653 123 112 97 0.607962 0.783364 -0.129322 0.000000 
-0.139790 -0.067871 -0.105951 117 99 77 -0.496082 0.761315 0.417495 0.000000 
-0.071491 -0.095841 0.027872 115 104 98 -0.554822 0.797266 0.237781 0.000000 
-0.132571 -0.073284 -0.089414 88 80 68 0.388005 0.920354 0.048997 0.000000 
-0.121637 -0.078922 -0.066628 105 91 77 0.706422 0.362226 -0.608080 0.000000 
-0.140591 -0.068852 -0.107483 121 105 83 -0.754735 -0.625087 0.199102 0.000000 
-0.037513 -0.104428 0.097126 87 74 66 -0.590104 0.663658 0.459713 0.000000 
-0.057009 -0.099844 0.061480 138 127 115 -0.755581 0.523848 0.393294 0.000000 
-0.083499 -0.091105 0.006891 114 109 104 -0.904375 -0.055425 0.423123 0.000000 
-0.074003 -0.095176 0.023788 128 115 102 0.418310 0.900001 -0.122535 0.000000 
-0.134551 -0.069530 -0.093508 130 117 103 -0.541826 0.801028 0.254518 0.000000 
-0.061079 -0.097606 0.046449 100 91 86 -0.775999 0.201299 0.597750 0.000000 
-0.129480 -0.074431 -0.089104 80 72 64 0.518641 -0.789930 -0.327143 0.000000 
-0.076533 -0.093581 0.017353 71 59 52 0.472102 -0.630030 -0.616589 0.000000 
-0.076929 -0.090619 0.016431 86 74 63 -0.424095 -0.903742 -0.058262 0.000000 
-0.123830 -0.075514 -0.079001 96 86 73 -0.851447 0.404786 0.333445 0.000000 
-0.085800 -0.087514 -0.003737 83 73 64 -0.967037 0.003586 0.254609 0.000000 
-0.056855 -0.098931 0.061375 155 149 143 -0.061995 0.960293 0.272020 0.000000 
-0.054923 -0.100469 0.063730 108 95 82 0.098235 0.994496 -0.036424 0.000000 
-0.137662 -0.068510 -0.110883 102 95 81 -0.922784 0.057093 0.381063 0.000000 
-0.133452 -0.073259 -0.089798 119 111 100 0.199222 0.897224 0.394081 0.000000 
-0.120546 -0.074432 -0.070642 110 102 89 0.728222 0.622590 -0.286487 0.000000 
-0.150010 -0.067073 -0.127856 109 96 79 -0.206461 0.874859 0.438172 0.000000 
-0.099522 -0.084002 -0.024354 138 110 87 -0.651960 0.557619 0.513818 0.000000 
-0.099530 -0.081403 -0.026027 156 143 127 0.235445 -0.968220 -0.084357 0.000000 
-0.108005 -0.080116 -0.047179 88 76 62 -0.806717 -0.488485 0.332552 0.000000 
-0.144601 -0.064875 -0.124337 77 67 54 -0.911551 -0.094867 0.400093 0.000000 
-0.142808 -0.067194 -0.112946 114 88 61 0.852818 -0.014914 -0.521995 0.000000 
-0.065681 -0.098624 0.043739 157 144 137 0.912770 0.396678 -0.097454 0.000000 
-0.137426 -0.070600 -0.101299 92 82 64 0.703115 0.681385 -0.203329 0.000000 
-0.083843 -0.088925 0.005966 114 109 104 -0.882828 0.079246 0.462963 0.000000 
-0.041231 -0.104031 0.089704 96 83 70 0.497000 -0.828333 -0.258564 0.000000 
-0.043611 -0.104566 0.087562 115 103 96 0.345609 -0.853950 -0.389004 0.000000 
-0.134308 -0.070897 -0.093822 110 93 77 -0.819620 0.567869 0.075811 0.000000 
-0.122314 -0.078999 -0.069686 109 97 85 0.045042 0.987462 0.151295 0.000000 
-0.089626 -0.089309 -0.004036 160 148 134 -0.702295 0.133271 0.699300 0.000000 
-0.123895 -0.076122 -0.079606 103 96 87 -0.568265 0.704118 0.425784 0.000000 
-0.107428 -0.082755 -0.042319 84 68 56 0.461484 -0.868415 -0.181350 0.000000 
-0.101225 -0.083310 -0.027613 128 103 82 -0.608818 0.635653 0.474643 0.000000 
-0.084201 -0.089636 0.005348 118 100 85 0.937099 0.169754 -0.305006 0.000000 
-0.078823 -0.091756 0.011272 91 82 70 0.868862 -0.297765 -0.395493 0.000000 
-0.129267 -0.073704 -0.089639 75 61 42 -0.682324 0.582227 0.442092 0.000000 
-0.121065 -0.079020 -0.067916 82 63 50 -0.218652 0.893686 0.391813 0.000000 
-0.085821 -0.089679 -0.001143 71 59 51 -0.672135 0.548100 0.497816 0.000000 
-0.070012 -0.095586 0.034392 135 126 114 -0.884314 -0.317871 0.341975 0.000000 
-0.092430 -0.086691 -0.009338 123 113 104 -0.857924 0.283928 0.428195 0.000000 
-0.041659 -0.103069 0.087723 130 126 125 0.552803 0.831314 -0.057672 0.000000 
-0.068376 -0.096621 0.033495 98 94 85 -0.558483 0.726522 0.400328 0.000000 
-0.065249 -0.097724 0.039904 75 61 54 0.525924 -0.768658 -0.364101 0.000000 
-0.115609 -0.081800 -0.055668 102 92 82 0.103164 -0.981875 -0.158993 0.000000 
-0.075890 -0.095150 0.019384 109 103 95 -0.751121 0.531839 0.391107 0.000000 
-0.065851 -0.095373 0.036765 117 105 94 -0.570427 -0.712621 0.408393 0.000000 
-0.052249 -0.101794 0.071108 138 128 116 0.891646 -0.028157 -0.451857 0.000000 
-0.147792 -0.068384 -0.120435 106 94 79 0.585469 0.737918 -0.335712 0.000000 
-0.112886 -0.078007 -0.056009 100 90 75 0.721714 0.679875 -0.129998 0.000000 
-0.094475 -0.085223 -0.020694 65 53 41 -0.770896 0.266424 0.578566 0.000000 
-0.090671 -0.087904 -0.010515 82 66 49 -0.616865 0.643612 0.453036 0.000000 
-0.075081 -0.091458 0.020103 86 76 66 0.580102 0.814347 0.017913 0.000000 
-0.039054 -0.104814 0.098283 131 120 113 -0.910473 -0.184381 0.370192 0.000000 
-0.118708 -0.079306 -0.060797 115 98 80 -0.652163 0.413202 0.635568 0.000000 
-0.090297 -0.085575 -0.007887 104 93 83 0.131352 -0.922233 -0.363639 0.000000 
-0.135245 -0.069674 -0.098447 145 133 117 -0.097970 -0.965700 -0.240471 0.000000 
-0.066907 -0.099286 0.041643 120 109 99 -0.654720 -0.750960 -0.086032 0.000000 
-0.083194 -0.090920 0.004064 83 71 55 0.418275 0.041427 -0.907375 0.000000 
-0.129161 -0.075157 -0.081689 122 101 79 -0.886695 0.163453 0.432499 0.000000 
-0.054914 -0.100300 0.062909 109 101 93 0.448875 0.754703 -0.478472 0.000000 
-0.123971 -0.075743 -0.079716 102 88 77 0.663796 -0.562966 -0.492386 0.000000 
-0.095751 -0.086876 -0.015277 133 107 83 0.738562 -0.192735 -0.646049 0.000000 
-0.044170 -0.102740 0.080928 115 107 94 -0.781667 0.521646 0.341879 0.000000 
-0.057773 -0.098625 0.055352 91 81 73 -0.996285 0.042372 0.074966 0.000000 
-0.133939 -0.071416 -0.092147 105 90 73 0.784419 -0.446615 -0.430375 0.000000 
-0.128537 -0.072501 -0.087850 101 82 62 0.523987 0.844442 -0.111149 0.000000 
-0.096796 -0.085722 -0.022928 91 75 61 -0.469715 0.743303 0.476307 0.000000 
-0.064401 -0.099075 0.043336 106 90 83 -0.460046 0.861649 0.214288 0.000000 
-0.058333 -0.099996 0.055662 98 86 75 0.621361 -0.757043 -0.201981 0.000000 
-0.136494 -0.069259 -0.103081 117 109 95 -0.365805 -0.910925 -0.190792 0.000000 
-0.127124 -0.074042 -0.082131 104 86 70 -0.332212 0.809072 0.484807 0.000000 
-0.080066 -0.093143 0.010788 94 85 73 0.574964 -0.757543 -0.309103 0.000000 
-0.117170 -0.076192 -0.064648 106 84 67 -0.760385 -0.578658 0.294908 0.000000 
-0.041309 -0.104488 0.093607 160 152 142 -0.903317 -0.375536 0.207342 0.000000 
-0.046370 -0.103708 0.081177 120 109 99 -0.231963 0.950914 0.204833 0.000000 
-0.064028 -0.096484 0.040308 83 73 64 0.926688 0.180851 -0.329458 0.000000 
-0.045468 -0.103616 0.087011 130 121 109 -0.815529 -0.253202 0.520385 0.000000 
-0.146075 -0.068425 -0.120585 87 74 60 -0.238101 0.925314 0.295131 0.000000 
-0.136504 -0.069732 -0.107558 112 104 88 -0.917964 0.137903 0.371922 0.000000 
-0.127932 -0.074724 -0.081335 104 87 71 0.312229 -0.648726 -0.694023 0.000000 
-0.079874 -0.093385 0.012989 142 126 110 0.212795 -0.976977 -0.015284 0.000000 
-0.102957 -0.085271 -0.029911 112 95 74 -0.448770 -0.893568 0.011914 0.000000 
-0.111654 -0.080745 -0.052198 83 69 58 0.507424 -0.825143 -0.248314 0.000000 
-0.108926 -0.080471 -0.044305 129 106 86 -0.642958 0.730563 0.229963 0.000000 
-0.045923 -0.103959 0.084757 151 139 127 0.634138 0.644125 -0.427752 0.000000 
-0.069278 -0.093910 0.034186 136 131 122 0.136029 0.990424 0.023608 0.000000 
-0.079035 -0.089710 0.010744 103 100 91 0.623178 0.769632 -0.138982 0.000000 
-0.084888 -0.087901 -0.001775 83 73 57 0.916173 0.032956 -0.399425 0.000000 
-0.127180 -0.075343 -0.083175 93 81 67 -0.074162 0.995106 0.065307 0.000000 
-0.071879 -0.095845 0.028811 105 93 81 0.280329 0.921492 -0.268828 0.000000 
-0.097394 -0.082626 -0.023547 128 114 97 0.383760 0.921292 0.062846 0.000000 
-0.052128 -0.101178 0.066611 76 66 56 0.530485 -0.740708 -0.412234 0.000000 
-0.125485 -0.077521 -0.072641 113 102 88 0.928352 -0.142081 -0.343476 0.000000 
-0.145130 -0.067864 -0.115920 96 82 68 -0.788851 0.289298 0.542236 0.000000 
-0.080140 -0.089176 0.009233 85 74 63 0.698956 0.701962 -0.136785 0.000000 
-0.132776 -0.073338 -0.092094 80 69 58 -0.556195 -0.830860 0.017853 0.000000 
-0.074743 -0.093193 0.020274 71 59 46 -0.775825 0.215249 0.593096 0.000000 
-0.069798 -0.097100 0.031812 113 104 95 0.466325 -0.873458 -0.140042 0.000000 
-0.064591 -0.098746 0.045653 151 133 115 0.845496 0.299414 -0.442140 0.000000 
-0.115395 -0.078435 -0.062111 99 84 72 -0.742828 0.338238 0.577755 0.000000 
-0.145153 -0.062995 -0.124595 95 78 61 0.754545 0.382977 -0.532908 0.000000 
-0.123709 -0.074307 -0.079397 96 82 69 0.982096 0.144820 -0.120480 0.000000 
-0.123396 -0.074937 -0.077691 86 75 65 0.877020 0.279258 -0.390961 0.000000 
-0.115934 -0.078112 -0.063447 105 90 77 0.901546 -0.086979 -0.423851 0.000000 
-0.090171 -0.085408 -0.011106 107 97 85 -0.557145 -0.748816 0.358977 0.000000 
-0.102411 -0.081847 -0.036737 86 73 58 0.812818 0.345169 -0.469239 0.000000 
-0.130675 -0.074580 -0.085319 111 102 90 -0.272381 -0.961417 0.038556 0.000000 
-0.117152 -0.076220 -0.061679 150 134 120 -0.313234 0.904409 0.289705 0.000000 
-0.109879 -0.079293 -0.049416 88 80 72 -0.544755 -0.837334 0.045977 0.000000 
-0.052741 -0.101081 0.066050 85 72 61 -0.878860 0.441631 0.180467 0.000000 
-0.064354 -0.097265 0.040390 82 71 63 -0.743279 0.466403 0.479588 0.000000 
-0.143098 -0.067436 -0.121435 84 74 63 0.471274 -0.739156 -0.481196 0.000000 
-0.047115 -0.102282 0.082079 163 156 145 0.797218 -0.513975 -0.316659 0.000000 
-0.035042 -0.105676 0.103521 124 111 101 -0.383724 0.910459 0.154339 0.000000 
-0.043731 -0.103197 0.088604 165 158 147 0.793120 -0.210985 -0.571354 0.000000 
-0.136748 -0.071140 -0.099867 85 73 58 -0.628313 -0.761545 0.158971 0.000000 
-0.151365 -0.066769 -0.131606 138 126 107 -0.121857 0.870200 0.477392 0.000000 
-0.119703 -0.076717 -0.069415 83 69 61 -0.789456 -0.171226 0.589441 0.000000 
-0.130705 -0.070908 -0.093957 119 110 93 0.947653 0.233836 -0.217427 0.000000 
-0.140956 -0.068753 -0.114725 82 70 57 -0.217017 0.933874 0.284223 0.000000 
-0.073156 -0.091873 0.024411 126 119 105 -0.242796 -0.969988 -0.013156 0.000000 
-0.073273 -0.094727 0.023489 71 56 40 0.462630 -0.853969 -0.238141 0.000000 
-0.120481 -0.079709 -0.066500 91 75 60 0.138632 -0.965244 -0.221553 0.000000 
-0.047762 -0.101603 0.080358 168 164 158 0.551270 -0.814067 -0.182750 0.000000 
-0.134799 -0.071904 -0.095136 90 80 66 0.622547 0.782031 -0.029379 0.000000 
-0.095037 -0.085788 -0.021400 97 86 72 0.389093 -0.821066 -0.417680 0.000000 
-0.042539 -0.104325 0.089507 146 133 125 0.219290 0.969692 0.107744 0.000000 
-0.143823 -0.067447 -0.122457 89 80 68 -0.560402 0.684192 0.466723 0.000000 
-0.036068 -0.105142 0.102842 144 136 127 -0.969794 0.078632 0.230903 0.000000 
-0.128700 -0.073899 -0.082651 105 86 61 -0.409113 0.829283 0.380680 0.000000 
-0.140936 -0.067325 -0.118415 99 89 78 -0.896842 -0.093160 0.432431 0.000000 
-0.131066 -0.072867 -0.086654 111 95 78 -0.451056 0.814451 0.364989 0.000000 
-0.062927 -0.099452 0.047655 121 108 96 -0.385136 -0.918611 0.088459 0.000000 
-0.102618 -0.085009 -0.028753 124 106 83 -0.820113 -0.534062 0.205409 0.000000 
-0.077557 -0.090518 0.016959 101 88 75 -0.111782 -0.953437 -0.280113 0.000000 
-0.098850 -0.087057 -0.020571 130 107 89 -0.726812 -0.614003 0.307807 0.000000 
-0.126647 -0.075077 -0.077001 136 121 107 0.404775 -0.745638 -0.529321 0.000000 
-0.059503 -0.097158 0.050900 153 148 146 0.200390 0.947423 -0.249465 0.000000 
-0.142247 -0.070479 -0.113752 98 86 69 -0.213013 0.944128 0.251493 0.000000 
-0.073109 -0.093050 0.029540 104 97 91 -0.643128 0.707280 0.293497 0.000000 
-0.082438 -0.092465 0.009592 156 143 133 -0.948986 -0.160639 0.271332 0.000000 
-0.081397 -0.091700 0.006943 96 90 80 -0.753644 0.454813 0.474516 0.000000 
-0.086365 -0.090623 0.000978 129 116 102 -0.919967 -0.359865 0.155428 0.000000 
-0.088822 -0.089948 -0.003183 132 117 99 -0.753401 -0.362869 0.548372 0.000000 
-0.148915 -0.060959 -0.131366 105 85 62 -0.980527 0.196105 0.010443 0.000000 
-0.094012 -0.085889 -0.019465 64 50 36 0.572100 -0.704761 -0.419540 0.000000 
-0.116762 -0.078319 -0.064606 88 72 59 0.846020 -0.367495 -0.386261 0.000000 
-0.138206 -0.070387 -0.103928 86 74 59 0.686559 0.719041 -0.107782 0.000000 
-0.050997 -0.102675 0.073887 139 130 115 0.780257 0.615061 -0.113572 0.000000 
-0.056410 -0.101065 0.064490 146 136 119 0.972417 -0.114773 -0.203060 0.000000 
-0.077419 -0.092312 0.014259 85 75 61 0.829958 -0.485564 -0.274584 0.000000 
-0.139714 -0.069972 -0.109919 73 64 50 0.145160 -0.988689 -0.037719 0.000000 
-0.051975 -0.102327 0.069862 91 83 75 -0.560066 0.797669 0.223718 0.000000 
-0.103723 -0.083817 -0.035214 82 66 55 -0.423090 0.812652 0.400738 0.000000 
-0.122552 -0.077597 -0.073051 85 72 60 0.408982 -0.767452 -0.493711 0.000000 
-0.040053 -0.105100 0.096185 137 122 110 0.834257 -0.527917 -0.159119 0.000000 
-0.138180 -0.070895 -0.106812 95 83 66 0.167684 -0.983508 -0.067787 0.000000 
-0.052065 -0.099984 0.064318 113 103 91 0.776109 -0.483237 -0.405138 0.000000 
-0.146677 -0.068779 -0.119361 94 81 63 -0.524368 -0.851247 -0.020430 0.000000 
-0.119777 -0.077436 -0.069629 84 68 56 -0.894320 -0.067108 0.442367 0.000000 
-0.121939 -0.078995 -0.068346 107 93 81 0.149756 0.975304 0.162341 0.000000 
-0.089156 -0.085814 -0.008475 115 109 97 -0.381152 -0.919410 0.096996 0.000000 
-0.041311 -0.105162 0.094162 139 124 111 -0.238919 0.969295 0.058182 0.000000 
-0.098382 -0.082767 -0.022792 141 124 104 0.655843 -0.635919 -0.406789 0.000000 
-0.142895 -0.069166 -0.116346 79 68 55 -0.192015 0.883854 0.426536 0.000000 
-0.084596 -0.088295 -0.000839 82 71 57 0.890115 -0.163019 -0.425582 0.000000 
-0.069076 -0.096188 0.036468 142 126 107 -0.877444 -0.394170 0.273352 0.000000 
-0.115303 -0.076357 -0.058519 115 107 91 0.568721 0.821795 0.034763 0.000000 
-0.083698 -0.089777 0.009070 150 142 132 0.724674 0.230080 -0.649546 0.000000 
-0.107907 -0.079368 -0.043750 143 136 124 -0.023420 0.991465 -0.128255 0.000000 
-0.100861 -0.082289 -0.032346 76 62 48 0.735996 0.671870 -0.083073 0.000000 
-0.035009 -0.103652 0.102850 155 154 153 -0.105973 -0.966528 -0.233652 0.000000 
-0.055747 -0.099860 0.057664 104 91 75 -0.694611 0.458077 0.554690 0.000000 
-0.040979 -0.104883 0.094138 150 141 130 -0.007400 -0.996825 -0.079281 0.000000 
-0.147069 -0.068608 -0.120292 90 77 61 0.306368 0.951617 0.023759 0.000000 
-0.119176 -0.077499 -0.064086 120 93 73 0.589491 -0.616516 -0.521927 0.000000 
-0.108917 -0.079329 -0.047228 88 80 70 -0.152612 -0.985472 0.074531 0.000000 
-0.096932 -0.087627 -0.019099 91 72 61 0.007719 0.991323 0.131221 0.000000 
-0.054771 -0.100310 0.064702 143 139 134 -0.003213 -0.995021 -0.099609 0.000000 
-0.130370 -0.072797 -0.092263 84 74 61 -0.807049 0.399513 0.434812 0.000000 
-0.085748 -0.087336 0.001494 132 121 107 0.451164 -0.738720 -0.500743 0.000000 
-0.130204 -0.073517 -0.085240 112 95 78 -0.314019 0.587778 0.745593 0.000000 
-0.134236 -0.070791 -0.094212 119 106 93 0.531373 -0.726707 -0.435362 0.000000 
-0.146477 -0.060903 -0.129846 138 127 110 0.914683 0.400425 0.054908 0.000000 
-0.098963 -0.084243 -0.023352 147 118 92 -0.666766 0.488738 0.562636 0.000000 
-0.062189 -0.097398 0.049245 124 111 98 0.277087 -0.941544 -0.191617 0.000000 
-0.065191 -0.098671 0.042466 122 109 97 0.631351 0.748668 0.202218 0.000000 
-0.095456 -0.087479 -0.015143 140 117 89 -0.857680 -0.042815 0.512398 0.000000 
-0.134893 -0.070509 -0.103823 96 86 70 -0.468073 0.828130 0.308396 0.000000 
-0.146998 -0.065804 -0.128176 104 93 80 0.656920 -0.442961 -0.610116 0.000000 
-0.078261 -0.090094 0.016743 135 126 116 -0.566746 0.767901 0.298540 0.000000 
-0.146294 -0.063673 -0.122233 130 104 79 -0.830636 0.423987 0.360941 0.000000 
-0.100752 -0.082155 -0.033896 109 94 80 -0.851431 -0.387580 0.353336 0.000000 
-0.042338 -0.104092 0.088326 108 95 83 0.585068 -0.746243 -0.317516 0.000000 
-0.107837 -0.082527 -0.043601 85 68 55 0.379861 -0.806203 -0.453589 0.000000 
-0.102530 -0.081527 -0.033948 89 75 62 0.032950 0.989638 0.139754 0.000000 
-0.089166 -0.087498 -0.008961 69 56 45 0.626939 -0.653547 -0.424057 0.000000 
-0.126501 -0.073061 -0.083546 110 101 86 -0.587059 -0.809115 -0.026369 0.000000 
-0.116046 -0.076607 -0.060964 134 128 118 -0.268118 -0.921924 0.279588 0.000000 
-0.046692 -0.103773 0.080938 103 96 87 -0.007719 0.991323 0.131221 0.000000 
-0.055224 -0.101442 0.063218 107 96 80 0.008281 0.973554 0.228306 0.000000 
-0.105276 -0.081909 -0.042445 94 82 68 -0.776213 0.497489 0.387296 0.000000 
-0.129043 -0.074721 -0.088059 74 62 44 -0.185862 0.917958 0.350441 0.000000 
-0.084883 -0.087127 0.002330 146 136 122 0.098906 -0.898511 -0.427663 0.000000 
-0.040259 -0.105785 0.096225 140 125 113 0.462186 -0.807626 -0.366230 0.000000 
-0.060219 -0.100215 0.049713 125 116 106 -0.470594 0.710048 0.523806 0.000000 
-0.104265 -0.080924 -0.036134 99 85 71 -0.157898 0.973917 0.162951 0.000000 
-0.133433 -0.073560 -0.089139 128 112 95 0.541745 -0.612628 -0.575499 0.000000 
-0.101102 -0.082212 -0.032812 88 79 70 -0.613591 -0.764298 0.198379 0.000000 
-0.140406 -0.068402 -0.106845 89 81 70 -0.857691 -0.467149 0.214798 0.000000 
-0.108678 -0.079968 -0.044092 144 120 94 -0.583075 0.761017 0.284388 0.000000 
-0.133095 -0.073020 -0.092025 83 71 58 -0.586047 -0.806710 0.075943 0.000000 
-0.075874 -0.091858 0.022243 112 105 95 -0.594949 0.415967 0.687755 0.000000 
-0.138645 -0.067385 -0.103976 147 137 122 -0.111289 0.992612 -0.048338 0.000000 
-0.140386 -0.066252 -0.112232 126 113 96 -0.526365 -0.826712 -0.198714 0.000000 
-0.109218 -0.080724 -0.042058 130 109 86 0.706424 -0.570764 -0.418561 0.000000 
-0.095904 -0.084370 -0.017770 133 111 87 -0.438720 0.851270 0.287862 0.000000 
-0.077028 -0.092849 0.015305 92 79 68 -0.755009 0.420905 0.502793 0.000000 
-0.066102 -0.098109 0.039798 126 114 104 -0.317841 0.942883 0.099741 0.000000 
-0.094512 -0.085159 -0.013956 114 102 92 0.854434 -0.319834 -0.409449 0.000000 
-0.138318 -0.068887 -0.102093 136 129 116 -0.410393 0.472033 0.780233 0.000000 
-0.040058 -0.104709 0.094639 138 127 117 -0.290826 0.947531 0.132681 0.000000 
-0.118012 -0.076411 -0.063135 154 134 117 -0.366023 0.700860 0.612227 0.000000 
-0.111141 -0.081652 -0.044558 138 127 118 0.690358 -0.359117 -0.628045 0.000000 
-0.063577 -0.098959 0.043687 115 108 99 0.515204 -0.827079 -0.224733 0.000000 
-0.068402 -0.094627 0.035454 96 85 76 -0.414855 -0.907239 -0.069369 0.000000 
-0.145929 -0.068551 -0.120120 86 73 59 -0.270230 0.877116 0.397042 0.000000 
-0.068114 -0.096384 0.033562 95 88 79 -0.582682 0.720557 0.375871 0.000000 
-0.127560 -0.074090 -0.082154 112 91 68 0.212640 -0.812315 -0.543073 0.000000 
-0.076715 -0.092848 0.016384 64 52 46 0.739011 -0.491020 -0.461262 0.000000 
-0.048687 -0.100663 0.073776 156 143 127 0.146126 0.965982 0.213369 0.000000 
-0.123521 -0.078507 -0.069975 127 105 82 -0.737235 -0.651403 0.179327 0.000000 
-0.126942 -0.073425 -0.086042 89 75 59 -0.807824 -0.487233 0.331700 0.000000 
-0.145562 -0.062265 -0.125226 115 105 95 0.797104 0.601025 -0.058255 0.000000 
-0.072917 -0.092861 0.022761 81 69 56 0.827377 -0.037545 -0.560391 0.000000 
-0.104331 -0.081655 -0.040560 75 63 49 -0.801483 0.363147 0.475131 0.000000 
-0.122606 -0.079558 -0.066897 115 102 85 -0.566153 -0.730255 0.382358 0.000000 
-0.045300 -0.103417 0.081741 94 79 66 -0.571297 0.728445 0.378137 0.000000 
-0.099287 -0.082516 -0.028371 86 74 65 -0.387532 -0.896441 0.214970 0.000000 
-0.096290 -0.084412 -0.017853 138 118 101 -0.488841 0.774674 0.401142 0.000000 
-0.110811 -0.082856 -0.045074 135 120 107 -0.424318 -0.900110 -0.098776 0.000000 
-0.061165 -0.100234 0.052979 137 125 115 0.765513 0.623583 -0.158538 0.000000 
-0.072888 -0.092609 0.027560 144 131 114 0.545718 -0.512135 -0.663257 0.000000 
-0.061452 -0.098564 0.051746 114 98 83 0.664081 -0.556483 -0.499322 0.000000 
-0.124286 -0.076136 -0.078348 88 74 64 -0.300544 0.868069 0.395132 0.000000 
-0.083693 -0.087787 0.002668 85 76 67 0.391353 0.912229 -0.121166 0.000000 
-0.142640 -0.064447 -0.120584 112 101 86 0.860128 0.509555 -0.023100 0.000000 
-0.100774 -0.082330 -0.032705 98 86 68 0.790040 0.453990 -0.411984 0.000000 
-0.049778 -0.102947 0.075806 114 110 102 -0.532841 -0.842599 0.078150 0.000000 
-0.111435 -0.081826 -0.049864 79 60 49 0.419112 -0.741252 -0.524300 0.000000 
-0.118457 -0.077531 -0.067496 67 54 41 -0.871255 0.001330 0.490829 0.000000 
-0.124530 -0.075678 -0.079896 93 80 66 0.500184 -0.752735 -0.428026 0.000000 
-0.058260 -0.100047 0.058664 127 119 106 0.730397 -0.370917 -0.573533 0.000000 
-0.079650 -0.090661 0.014209 134 116 91 -0.923045 -0.152212 0.353299 0.000000 
-0.080211 -0.089081 0.012855 143 139 130 -0.428604 0.836799 0.340685 0.000000 
-0.109913 -0.079905 -0.045326 129 110 89 -0.546348 0.727914 0.414300 0.000000 
-0.078960 -0.093551 0.013080 88 78 70 0.212688 -0.876035 -0.432812 0.000000 
-0.049617 -0.101128 0.073626 130 132 128 -0.305375 -0.945462 -0.113349 0.000000 
-0.145206 -0.062603 -0.124642 116 108 101 0.632213 0.712647 -0.304041 0.000000 
-0.129980 -0.073022 -0.085624 129 106 86 -0.051395 0.926429 0.372944 0.000000 
-0.146936 -0.066995 -0.125728 97 84 69 0.293882 -0.881645 -0.369236 0.000000 
-0.056134 -0.101983 0.066171 127 111 96 -0.691766 -0.694861 0.196542 0.000000 
-0.076654 -0.090594 0.015290 89 78 68 0.622930 0.758283 0.192262 0.000000 
-0.087209 -0.087128 -0.006742 85 78 71 0.759330 -0.354570 -0.545617 0.000000 
-0.074384 -0.091962 0.023775 93 80 67 0.743951 -0.610706 0.271249 0.000000 
-0.094778 -0.088451 -0.013853 139 120 98 -0.298302 -0.832436 -0.466976 0.000000 
-0.110792 -0.082860 -0.044771 136 120 106 0.564468 0.813367 0.140747 0.000000 
-0.103930 -0.084740 -0.034357 90 76 57 -0.362366 0.912361 0.190493 0.000000 
-0.108860 -0.083508 -0.039989 137 117 97 -0.690251 -0.526462 0.496379 0.000000 
-0.130871 -0.071836 -0.094574 75 64 53 0.778959 -0.473230 -0.411433 0.000000 
-0.091612 -0.088617 -0.008767 120 103 82 -0.611055 -0.787294 0.082341 0.000000 
-0.036834 -0.103768 0.100572 136 126 117 -0.427003 0.740248 0.519328 0.000000 
-0.123696 -0.074683 -0.072655 143 137 130 -0.683677 0.593851 0.424179 0.000000 
-0.120082 -0.078231 -0.068847 78 64 52 0.505930 -0.739942 -0.443306 0.000000 
-0.053080 -0.102144 0.067972 88 78 71 0.438526 -0.788052 -0.432053 0.000000 
-0.062118 -0.097062 0.046062 120 115 108 0.622032 0.747378 -0.233458 0.000000 
-0.097179 -0.084547 -0.019485 100 82 66 -0.793175 0.556313 0.247770 0.000000 
-0.108617 -0.081787 -0.040309 148 127 106 -0.725872 0.527456 0.441476 0.000000 
-0.150707 -0.064874 -0.131110 88 65 40 -0.567676 -0.635056 0.523879 0.000000 
-0.055793 -0.100685 0.059939 86 74 65 -0.169997 0.945185 0.278795 0.000000 
-0.107832 -0.082782 -0.043318 87 70 58 -0.425231 0.826751 0.368323 0.000000 
-0.151476 -0.066085 -0.131598 87 72 57 0.325338 -0.804617 -0.496736 0.000000 
-0.136867 -0.071163 -0.101379 74 65 52 -0.615967 -0.765755 0.184943 0.000000 
-0.038030 -0.103538 0.099861 166 160 154 -0.751138 0.468434 0.465147 0.000000 
-0.124693 -0.077291 -0.075588 82 69 54 -0.129354 -0.960356 -0.246949 0.000000 
-0.129118 -0.075496 -0.082694 101 91 77 -0.258966 -0.929731 -0.261796 0.000000 
-0.120922 -0.078596 -0.063862 132 121 108 -0.705625 0.015370 0.708419 0.000000 
-0.090494 -0.086178 -0.007541 134 114 94 -0.617727 0.604262 0.503271 0.000000 
-0.148618 -0.061669 -0.132799 127 111 92 0.685999 -0.715890 0.130026 0.000000 
-0.088087 -0.090089 -0.004440 94 83 69 0.252562 -0.816566 -0.519069 0.000000 
-0.101341 -0.085430 -0.026497 124 109 95 0.850494 0.525586 0.020477 0.000000 
-0.112445 -0.078592 -0.052113 117 95 74 -0.247553 0.625978 0.739506 0.000000 
-0.062003 -0.099862 0.050377 100 84 74 0.522524 0.818468 0.238912 0.000000 
-0.079116 -0.090996 0.010214 83 74 59 0.812404 -0.391039 -0.432537 0.000000 
-0.061201 -0.099746 0.054295 150 137 119 0.898732 -0.252353 -0.358607 0.000000 
-0.144147 -0.068302 -0.119453 81 69 56 -0.254814 0.886632 0.385946 0.000000 
-0.067518 -0.097178 0.034191 116 107 101 -0.587510 0.667853 0.456952 0.000000 
-0.141627 -0.068569 -0.116333 80 70 57 -0.292620 0.928749 0.227593 0.000000 
-0.063680 -0.094844 0.045224 144 140 132 -0.788052 -0.432053 0.438526 0.000000 
-0.060256 -0.100109 0.054850 120 108 95 0.690722 0.668389 -0.275970 0.000000 
-0.067706 -0.097889 0.037306 134 121 111 -0.314973 -0.942238 0.113926 0.000000 
-0.063464 -0.098889 0.047645 133 121 110 0.791237 0.327684 -0.516302 0.000000 
-0.122479 -0.074895 -0.074045 112 106 95 0.832222 0.554361 0.009534 0.000000 
-0.041147 -0.103618 0.093195 136 123 112 0.713064 -0.584613 -0.386998 0.000000 
-0.130363 -0.073485 -0.090897 88 78 64 -0.359314 0.906287 0.222571 0.000000 
-0.141782 -0.069192 -0.116411 96 86 68 -0.315568 0.917884 0.240638 0.000000 
-0.112406 -0.078582 -0.055755 85 75 63 -0.906026 -0.271661 0.324525 0.000000 
-0.078146 -0.092881 0.017399 141 122 102 0.906363 0.109989 -0.407933 0.000000 
-0.123408 -0.079716 -0.070307 130 109 90 0.573149 -0.818586 0.037652 0.000000 
-0.109455 -0.083940 -0.040457 119 106 89 -0.583667 0.637492 0.502929 0.000000 
-0.085973 -0.090019 0.001818 118 103 87 -0.848226 -0.054499 0.526823 0.000000 
-0.093546 -0.086780 -0.011555 132 110 82 -0.807539 0.311321 0.500959 0.000000 
-0.097439 -0.085718 -0.023790 91 77 60 0.399033 -0.809283 -0.431084 0.000000 
-0.052290 -0.100483 0.065083 100 89 77 -0.712288 -0.685067 0.152741 0.000000 
-0.145275 -0.067250 -0.123446 81 69 56 -0.232061 0.903432 0.360497 0.000000 
-0.102582 -0.081402 -0.032583 111 91 73 -0.257637 0.965834 0.028084 0.000000 
-0.110262 -0.079643 -0.051776 84 70 56 0.924182 -0.172495 -0.340783 0.000000 
-0.123757 -0.077699 -0.073784 83 68 54 0.386528 -0.831430 -0.399149 0.000000 
-0.069401 -0.096074 0.035897 128 117 105 -0.869343 -0.252487 0.424844 0.000000 
-0.061288 -0.097977 0.051750 132 126 121 -0.492619 0.617035 0.613672 0.000000 
-0.057381 -0.098531 0.054154 107 94 81 -0.874179 0.241411 0.421345 0.000000 
-0.101561 -0.084443 -0.026551 124 115 110 -0.869664 -0.109957 0.481242 0.000000 
-0.112646 -0.079286 -0.056756 85 71 59 -0.841992 0.399828 0.362198 0.000000 
-0.128968 -0.073146 -0.089510 78 66 52 0.896843 -0.242987 -0.369635 0.000000 
-0.092300 -0.086854 -0.014405 78 63 53 0.431874 -0.827363 -0.359104 0.000000 
-0.113022 -0.082439 -0.049125 126 108 94 0.373564 0.902659 -0.213673 0.000000 
-0.079626 -0.089830 0.013829 103 90 78 -0.652197 0.588486 0.477831 0.000000 
-0.133754 -0.071071 -0.093992 111 93 76 0.811841 -0.444998 0.378009 0.000000 
-0.144507 -0.063390 -0.123581 93 75 57 -0.915847 -0.313963 0.250303 0.000000 
-0.062713 -0.097069 0.047453 118 102 89 0.308711 -0.893323 -0.326607 0.000000 
-0.084524 -0.091848 0.007021 150 144 140 0.774366 -0.550838 -0.311343 0.000000 
-0.072969 -0.096177 0.027117 131 119 105 0.725909 0.685977 -0.049915 0.000000 
-0.087566 -0.088877 -0.001229 119 105 92 -0.834583 0.120891 0.537454 0.000000 
-0.062547 -0.098147 0.050286 138 130 123 0.797477 -0.261648 -0.543663 0.000000 
-0.100640 -0.082887 -0.033076 79 66 53 0.860115 -0.250298 -0.444469 0.000000 
-0.136887 -0.070222 -0.097147 141 130 112 -0.623529 0.535660 0.569456 0.000000 
-0.072149 -0.091814 0.023202 137 130 121 -0.809697 -0.301466 0.503496 0.000000 
-0.139072 -0.069820 -0.105865 92 82 66 0.874314 0.472101 -0.112677 0.000000 
-0.116299 -0.078046 -0.058323 114 92 75 -0.751998 0.613844 0.240200 0.000000 
-0.149193 -0.065054 -0.130898 109 96 79 0.473080 -0.761184 -0.443615 0.000000 
-0.095839 -0.085532 -0.015707 139 128 118 -0.877452 0.333036 0.345202 0.000000 
-0.070632 -0.096400 0.029117 106 103 93 0.158224 -0.881119 -0.445640 0.000000 
-0.124598 -0.077832 -0.074650 89 79 68 0.079687 0.977083 0.197378 0.000000 
-0.105178 -0.080302 -0.039773 103 84 67 0.353376 0.931140 -0.090024 0.000000 
-0.056102 -0.100851 0.060884 106 95 81 0.039465 -0.977058 -0.209284 0.000000 
-0.136305 -0.070447 -0.105582 77 67 51 -0.405797 0.856340 0.319392 0.000000 
-0.062522 -0.102617 0.053416 123 111 97 -0.777766 0.547790 0.308232 0.000000 
-0.076545 -0.092756 0.019902 126 110 91 -0.886715 -0.314641 0.338728 0.000000 
-0.129890 -0.074117 -0.089560 75 64 49 -0.173597 0.850179 0.497051 0.000000 
-0.067225 -0.097781 0.038543 134 121 111 0.582741 0.785701 -0.207573 0.000000 
-0.086724 -0.090448 0.000592 148 137 124 -0.920353 -0.275098 0.277978 0.000000 
-0.130252 -0.073764 -0.084702 112 94 76 0.431231 0.355410 0.829291 0.000000 
-0.123955 -0.076245 -0.078342 93 78 66 -0.557749 0.700932 0.444534 0.000000 
-0.122094 -0.076549 -0.074620 88 74 63 -0.843321 0.249476 0.475994 0.000000 
-0.105027 -0.083417 -0.033460 117 95 76 -0.821199 0.450948 0.349682 0.000000 
-0.050834 -0.102529 0.071524 94 86 78 0.512772 -0.806235 -0.295041 0.000000 
-0.138530 -0.067566 -0.111355 114 103 84 -0.685415 -0.718125 0.120431 0.000000 
-0.136177 -0.069150 -0.106836 120 112 102 0.851431 0.353336 -0.387580 0.000000 
-0.141322 -0.070022 -0.110106 100 92 78 -0.516965 -0.574218 0.634839 0.000000 
-0.077403 -0.091581 0.018588 105 92 77 -0.760008 0.267030 0.592522 0.000000 
-0.047074 -0.101830 0.076172 86 75 67 -0.514162 0.789664 0.334766 0.000000 
-0.124008 -0.074767 -0.080907 87 76 61 0.810506 -0.358279 -0.463374 0.000000 
-0.087580 -0.088460 -0.001090 107 95 84 0.925639 -0.048718 -0.375259 0.000000 
-0.118991 -0.077299 -0.068041 86 72 60 0.902841 0.055497 -0.426379 0.000000 
-0.055817 -0.101894 0.064979 123 112 95 0.301989 0.948167 0.098905 0.000000 
-0.145098 -0.062590 -0.123603 108 92 76 0.662894 0.718782 -0.209580 0.000000 
-0.126828 -0.073371 -0.082994 108 86 68 0.197282 0.979237 0.046630 0.000000 
-0.082016 -0.089210 0.010787 149 137 123 0.758361 -0.347649 -0.551388 0.000000 
-0.070334 -0.094794 0.028214 67 55 48 -0.884370 0.320904 0.338983 0.000000 
-0.064621 -0.097057 0.045965 152 138 120 -0.661982 0.574835 0.480984 0.000000 
-0.099064 -0.084276 -0.028230 68 53 42 0.447523 -0.843946 -0.295768 0.000000 
-0.041630 -0.103820 0.088765 87 75 68 -0.549866 0.794250 0.258484 0.000000 
-0.075039 -0.091330 0.022135 115 108 99 0.043278 0.965718 0.255959 0.000000 
-0.088289 -0.084867 -0.006069 142 138 133 0.011403 0.936320 0.350962 0.000000 
-0.100318 -0.082601 -0.031994 79 69 58 -0.949628 -0.154466 0.272666 0.000000 
-0.047002 -0.104323 0.082050 141 130 119 0.662540 0.744083 0.085912 0.000000 
-0.037228 -0.104807 0.097448 113 109 101 -0.496827 0.781653 0.377071 0.000000 
