ply
format ascii 1.0
comment Created by Open3D
obj_info Generated by CloudCompare!
element vertex 614
property float x
property float y
property float z
property uchar red
property uchar green
property uchar blue
property float nx
property float ny
property float nz
property float scalar_leaf10
end_header
-0.100271 0.173703 -0.308887 63 62 53 -0.985343 0.012559 0.170123 0.000000 
-0.050272 0.334676 -0.226854 64 64 56 0.625780 -0.774567 -0.091898 0.000000 
-0.101243 0.148277 -0.325556 124 117 105 0.683251 -0.730182 0.001380 0.000000 
-0.057504 0.315773 -0.237628 105 101 91 -0.596016 -0.058321 0.800852 0.000000 
-0.081208 0.244818 -0.275888 57 57 48 0.898241 -0.350713 0.264885 0.000000 
-0.063983 0.288470 -0.251764 116 115 108 0.418200 -0.841099 0.343018 0.000000 
-0.073755 0.264666 -0.263494 103 100 89 0.091275 -0.263542 0.960320 0.000000 
-0.054214 0.316878 -0.236905 92 88 76 0.903752 -0.330641 0.271860 0.000000 
-0.080976 0.249388 -0.272723 95 93 87 0.937941 0.317185 -0.140215 0.000000 
-0.073554 0.268139 -0.262035 129 131 129 -0.040214 -0.351550 0.935305 0.000000 
-0.076483 0.255084 -0.268759 131 125 113 -0.272104 0.618998 -0.736750 0.000000 
-0.073028 0.262629 -0.266645 87 84 76 -0.939959 0.293135 -0.174780 0.000000 
-0.084207 0.238023 -0.278162 89 88 82 -0.197572 -0.505241 0.840058 0.000000 
-0.105766 0.152628 -0.322263 89 82 61 -0.185974 -0.821007 0.539778 0.000000 
-0.095222 0.187455 -0.302815 92 88 75 -0.875526 0.250794 -0.412984 0.000000 
-0.082862 0.240214 -0.279600 80 81 70 0.638214 -0.359303 0.680871 0.000000 
-0.101964 0.164228 -0.312902 76 76 67 0.607962 0.129322 -0.783364 0.000000 
-0.071323 0.279049 -0.257453 94 94 85 0.095397 0.667777 -0.738223 0.000000 
-0.085472 0.225306 -0.285125 106 100 88 0.887382 -0.226660 0.401470 0.000000 
-0.083293 0.236250 -0.278050 132 129 122 0.367222 -0.509581 0.778123 0.000000 
-0.096337 0.184030 -0.307471 77 76 64 -0.890953 0.058849 0.450266 0.000000 
-0.054428 0.316847 -0.235954 121 119 113 0.644289 -0.460207 0.610820 0.000000 
-0.110784 0.149827 -0.323191 84 82 64 -0.161371 -0.221721 0.961665 0.000000 
-0.105015 0.158112 -0.318202 88 83 68 0.491255 -0.113146 -0.863635 0.000000 
-0.081270 0.246019 -0.272714 135 130 120 -0.362371 0.008900 0.931992 0.000000 
-0.103888 0.146774 -0.327510 105 107 97 -0.037967 0.794503 -0.606072 0.000000 
-0.052688 0.323204 -0.231759 129 125 114 0.218529 -0.465694 0.857540 0.000000 
-0.075166 0.260564 -0.268336 59 58 50 0.353908 -0.326567 0.876415 0.000000 
-0.050005 0.330062 -0.230088 80 78 78 0.820487 -0.433255 0.372949 0.000000 
-0.099498 0.177699 -0.306170 69 68 58 -0.120607 -0.018810 0.992522 0.000000 
-0.093257 0.211666 -0.290686 129 124 113 0.489305 0.516025 0.703063 0.000000 
-0.075577 0.257438 -0.267510 131 127 116 -0.420140 0.375748 -0.826012 0.000000 
-0.095952 0.184233 -0.304545 66 64 54 0.849423 -0.307896 0.428580 0.000000 
-0.100025 0.145834 -0.335046 90 88 69 -0.842099 -0.539322 0.001352 0.000000 
-0.038558 0.345082 -0.212304 82 82 74 -0.021794 -0.355111 0.934570 0.000000 
-0.078722 0.256638 -0.270017 117 118 115 -0.275375 0.850738 -0.447676 0.000000 
-0.039339 0.345136 -0.213442 44 42 33 -0.310594 -0.835014 0.454185 0.000000 
-0.102758 0.157614 -0.316505 94 91 82 0.738170 0.327896 -0.589567 0.000000 
-0.094510 0.176848 -0.307377 124 123 115 0.291694 -0.183864 0.938674 0.000000 
-0.068311 0.285281 -0.254165 105 102 92 0.989309 0.016844 -0.144859 0.000000 
-0.073710 0.269461 -0.261716 99 98 90 -0.377415 -0.500520 0.779126 0.000000 
-0.078016 0.250050 -0.272056 115 111 101 0.647856 -0.431349 0.627870 0.000000 
-0.102040 0.161972 -0.318902 58 59 46 0.795960 0.073142 -0.600914 0.000000 
-0.102858 0.149284 -0.324010 102 96 75 -0.779783 -0.304578 0.546965 0.000000 
-0.053709 0.323447 -0.231917 124 125 119 0.706035 0.234297 -0.668296 0.000000 
-0.104851 0.146911 -0.334642 73 72 59 0.872079 0.473987 0.121719 0.000000 
-0.039523 0.343756 -0.214118 83 86 83 0.811213 -0.582662 -0.049378 0.000000 
-0.099707 0.165182 -0.313697 67 71 63 0.915482 -0.393127 -0.085699 0.000000 
-0.080381 0.251893 -0.272155 58 57 44 0.085121 -0.592964 0.800717 0.000000 
-0.096622 0.189444 -0.300046 105 106 101 -0.258791 -0.239207 0.935846 0.000000 
-0.106838 0.157024 -0.323617 85 85 73 -0.545301 0.579066 -0.606077 0.000000 
-0.097791 0.181440 -0.303713 101 100 93 -0.287471 0.464616 -0.837551 0.000000 
-0.104326 0.158824 -0.321150 54 55 46 -0.076532 -0.065440 0.994917 0.000000 
-0.086747 0.224670 -0.284025 126 120 107 0.433862 -0.583470 0.686533 0.000000 
-0.081822 0.243929 -0.274217 93 93 88 -0.869858 0.300109 0.391512 0.000000 
-0.043944 0.338604 -0.222501 66 66 57 0.851229 -0.189993 -0.489195 0.000000 
-0.083556 0.232478 -0.279745 131 127 120 -0.662063 0.464282 -0.588315 0.000000 
-0.083118 0.242574 -0.276150 92 90 84 -0.679552 0.724161 -0.117472 0.000000 
-0.097983 0.177883 -0.305854 102 100 91 0.290158 -0.556533 0.778511 0.000000 
-0.096167 0.195726 -0.299939 68 68 60 -0.921215 0.388086 -0.027440 0.000000 
-0.094259 0.191815 -0.303116 77 74 61 -0.857232 0.141655 0.495063 0.000000 
-0.046468 0.336250 -0.224567 65 60 44 -0.954984 0.281948 0.092250 0.000000 
-0.094207 0.202465 -0.294297 122 119 111 0.210012 -0.661148 0.720263 0.000000 
-0.100333 0.177083 -0.311898 58 59 51 0.151037 -0.491237 0.857831 0.000000 
-0.096185 0.195628 -0.297805 85 85 77 0.963546 -0.128386 -0.234726 0.000000 
-0.071673 0.276986 -0.258649 90 89 81 0.479650 -0.324515 0.815246 0.000000 
-0.074303 0.263055 -0.264669 116 113 109 0.017797 -0.543506 0.839217 0.000000 
-0.075234 0.254619 -0.271377 76 74 65 -0.987236 -0.114960 0.110220 0.000000 
-0.053377 0.323645 -0.231987 120 123 119 -0.387014 -0.396492 0.832475 0.000000 
-0.094714 0.201736 -0.295590 92 90 82 -0.913257 0.403657 0.054983 0.000000 
-0.064472 0.285166 -0.254963 65 66 56 0.794496 0.183813 -0.578782 0.000000 
-0.049330 0.332214 -0.228611 87 85 80 -0.770727 0.517604 -0.371572 0.000000 
-0.069179 0.276592 -0.258327 107 101 93 0.401880 -0.405056 0.821232 0.000000 
-0.076803 0.259466 -0.266994 113 111 105 -0.749197 0.373783 0.546800 0.000000 
-0.077336 0.251306 -0.273790 59 58 49 -0.932779 -0.127011 0.337330 0.000000 
-0.094487 0.203072 -0.294467 110 108 104 -0.636108 0.354847 -0.685165 0.000000 
-0.103385 0.147711 -0.322204 115 109 92 0.364665 -0.930479 -0.035039 0.000000 
-0.092040 0.211342 -0.290458 114 112 106 -0.289843 -0.230461 0.928913 0.000000 
-0.044344 0.338279 -0.222502 81 78 70 -0.959157 -0.159640 0.233522 0.000000 
-0.104372 0.157791 -0.321142 55 53 38 -0.347417 -0.115806 0.930532 0.000000 
-0.080579 0.247959 -0.272868 112 110 101 -0.576143 -0.589659 0.566005 0.000000 
-0.085044 0.226684 -0.284789 96 92 80 -0.829081 0.445218 -0.338240 0.000000 
-0.100351 0.162416 -0.314004 121 117 105 0.896483 -0.357112 0.262277 0.000000 
-0.097246 0.193817 -0.299382 90 91 85 0.951506 -0.297264 0.079184 0.000000 
-0.105711 0.162978 -0.317184 78 77 63 -0.483171 -0.772748 0.411590 0.000000 
-0.071575 0.269392 -0.262425 101 97 88 -0.582816 0.646641 -0.492119 0.000000 
-0.050763 0.328224 -0.230264 100 100 94 0.709640 -0.408580 0.573998 0.000000 
-0.091454 0.209342 -0.291552 112 109 102 -0.467180 0.527033 -0.709915 0.000000 
-0.037394 0.344059 -0.209409 103 105 98 0.279075 0.738352 -0.613965 0.000000 
-0.080436 0.249196 -0.273442 49 48 40 -0.709360 0.684952 -0.166280 0.000000 
-0.097874 0.185399 -0.304938 68 67 56 -0.968128 0.174496 -0.179666 0.000000 
-0.057517 0.308922 -0.241129 118 114 105 -0.001335 -0.864020 0.503455 0.000000 
-0.102701 0.148369 -0.332393 86 86 68 0.582273 0.773748 -0.249545 0.000000 
-0.085311 0.238584 -0.277846 87 86 74 0.255071 -0.647974 0.717683 0.000000 
-0.091345 0.216840 -0.288391 89 88 81 0.883164 -0.211545 -0.418652 0.000000 
-0.094317 0.202025 -0.296592 72 71 63 -0.669051 0.642749 -0.373156 0.000000 
-0.102884 0.147348 -0.327126 81 83 70 -0.134164 0.869903 -0.474624 0.000000 
-0.097525 0.278391 -0.266653 104 95 77 -0.600294 -0.376623 0.705551 0.000000 
-0.053424 0.318712 -0.236230 86 85 78 -0.921514 0.388343 -0.001282 0.000000 
-0.088881 0.224620 -0.283682 92 92 86 0.418676 0.162579 -0.893464 0.000000 
-0.093905 0.193551 -0.301434 85 85 76 0.981736 -0.161398 -0.100722 0.000000 
-0.103305 0.163159 -0.319552 54 54 42 0.216336 0.482597 -0.848704 0.000000 
-0.047623 0.335010 -0.225357 66 61 59 -0.743362 0.668888 -0.001379 0.000000 
-0.065868 0.281219 -0.256695 86 85 77 -0.899028 0.339172 -0.276966 0.000000 
-0.094267 0.206780 -0.292624 136 128 116 -0.214151 0.565420 -0.796517 0.000000 
-0.093335 0.195644 -0.300859 79 81 72 -0.894532 0.278332 0.349776 0.000000 
-0.095498 0.194166 -0.301786 67 68 61 -0.678893 0.237849 -0.694645 0.000000 
-0.089845 0.209740 -0.295198 90 90 81 -0.880403 0.170824 0.442391 0.000000 
-0.104464 0.164198 -0.315624 82 80 66 -0.615119 0.023712 0.788078 0.000000 
-0.102318 0.167953 -0.312956 123 120 110 -0.764655 0.433905 0.476477 0.000000 
-0.076182 0.261902 -0.266672 75 74 64 0.823939 -0.538787 0.175594 0.000000 
-0.066816 0.286033 -0.253226 116 117 112 -0.093517 -0.448043 0.889107 0.000000 
-0.093636 0.202924 -0.295960 57 57 49 -0.881108 0.452772 0.136550 0.000000 
-0.105766 0.152628 -0.322263 89 82 61 -0.185974 -0.821007 0.539778 0.000000 
-0.091437 0.208686 -0.292503 102 99 91 -0.781743 0.393299 -0.483936 0.000000 
-0.104901 0.148972 -0.333420 87 88 75 0.139262 0.969727 -0.200589 0.000000 
-0.105378 0.162341 -0.317890 62 62 51 -0.851844 -0.117147 0.510528 0.000000 
-0.100718 0.165746 -0.311514 102 100 90 -0.026734 -0.679614 0.733083 0.000000 
-0.093462 0.209166 -0.293567 57 57 48 -0.876504 0.305333 -0.372172 0.000000 
-0.061149 0.306623 -0.242240 131 131 127 -0.417575 -0.271803 0.867038 0.000000 
-0.061895 0.301954 -0.245302 105 101 92 -0.793458 0.151492 0.589469 0.000000 
-0.070315 0.279361 -0.256980 123 115 104 0.982065 -0.167905 -0.085765 0.000000 
-0.101816 0.162444 -0.318216 55 57 47 -0.759185 -0.079838 0.645960 0.000000 
-0.074253 0.257731 -0.269327 85 81 69 0.898117 -0.289476 0.331042 0.000000 
-0.068077 0.286808 -0.254319 94 92 83 -0.878855 0.453182 -0.149130 0.000000 
-0.068012 0.276150 -0.259467 92 88 80 0.833954 -0.414613 0.364165 0.000000 
-0.101165 0.158846 -0.315785 87 86 74 0.914244 -0.108937 0.390243 0.000000 
-0.097554 0.189650 -0.302194 80 78 70 0.854025 -0.520018 0.014935 0.000000 
-0.067004 0.288792 -0.253464 99 97 89 0.597352 -0.690016 0.408715 0.000000 
-0.068521 0.273719 -0.259840 107 105 96 -0.324996 0.343136 -0.881269 0.000000 
-0.052235 0.329085 -0.229538 111 111 105 0.204074 -0.341074 0.917618 0.000000 
-0.105109 0.147525 -0.331294 48 48 35 -0.571487 -0.816204 0.084931 0.000000 
-0.087591 0.215169 -0.291950 67 67 54 -0.860896 0.293104 0.415870 0.000000 
-0.081399 0.240814 -0.276810 97 93 83 -0.493776 0.380451 -0.781948 0.000000 
-0.058341 0.305415 -0.242307 129 124 112 0.051144 -0.496234 0.866681 0.000000 
-0.101029 0.177874 -0.310387 84 87 79 -0.948149 0.293886 0.121012 0.000000 
-0.088361 0.218731 -0.287518 102 100 94 -0.377752 0.504209 -0.776580 0.000000 
-0.080157 0.243382 -0.275357 124 117 104 0.655160 -0.588136 0.474195 0.000000 
-0.040249 0.342438 -0.217060 115 108 97 -0.720288 0.691648 -0.052983 0.000000 
-0.095996 0.195974 -0.296676 89 88 80 -0.846783 0.180707 -0.500304 0.000000 
-0.046841 0.335348 -0.224613 76 74 64 -0.674905 0.733212 0.083088 0.000000 
-0.086862 0.220337 -0.288067 96 87 70 -0.830186 0.412721 -0.374770 0.000000 
-0.094543 0.203971 -0.294648 63 63 54 -0.813549 0.203006 -0.544910 0.000000 
-0.075036 0.263316 -0.264864 120 116 109 -0.500362 -0.151136 0.852523 0.000000 
-0.049545 0.322777 -0.235079 70 70 63 0.390936 -0.684551 0.615271 0.000000 
-0.095872 0.190507 -0.304859 96 99 94 0.188417 0.416270 -0.889504 0.000000 
-0.067195 0.295297 -0.248653 104 100 83 -0.032039 0.586461 -0.809344 0.000000 
-0.056440 0.319138 -0.234311 131 129 123 0.178819 -0.643443 0.744315 0.000000 
-0.102659 0.148264 -0.321572 103 100 84 0.598246 -0.709700 0.372060 0.000000 
-0.103019 0.169202 -0.316424 69 68 52 0.624579 -0.450433 0.637974 0.000000 
-0.104539 0.146088 -0.333845 65 62 44 -0.858584 -0.455791 0.234710 0.000000 
-0.101723 0.162864 -0.318155 58 58 45 0.667452 0.179522 -0.722689 0.000000 
-0.102121 0.156519 -0.320310 59 55 36 -0.702846 -0.142977 0.696825 0.000000 
-0.048141 0.336722 -0.225289 75 73 67 -0.524778 0.815806 -0.243039 0.000000 
-0.051648 0.328283 -0.229473 99 100 97 0.554405 -0.109135 0.825060 0.000000 
-0.039470 0.344622 -0.214058 72 73 67 -0.812992 -0.442434 0.378545 0.000000 
-0.086793 0.219477 -0.289607 78 76 64 -0.927629 0.363802 0.084574 0.000000 
-0.107819 0.152984 -0.320850 121 111 93 -0.910149 -0.160447 0.381950 0.000000 
-0.059390 0.307856 -0.242055 102 101 96 0.090636 -0.128304 0.987585 0.000000 
-0.058446 0.299167 -0.246354 95 94 84 -0.865329 -0.042647 0.499387 0.000000 
-0.045198 0.341592 -0.222321 125 125 114 -0.362413 0.908198 -0.209362 0.000000 
-0.108895 0.152550 -0.324002 105 103 88 0.769470 -0.509184 -0.385548 0.000000 
-0.086958 0.221386 -0.286108 107 102 93 -0.523693 0.493577 -0.694354 0.000000 
-0.100966 0.152312 -0.320239 69 67 56 0.936432 0.341366 0.081025 0.000000 
-0.048769 0.333606 -0.227877 78 74 59 -0.886864 0.457869 -0.061874 0.000000 
-0.057083 0.315335 -0.237138 123 120 115 -0.503348 0.129101 0.854385 0.000000 
-0.101448 0.160888 -0.314719 67 66 54 -0.705892 0.515651 -0.485613 0.000000 
-0.104000 0.150386 -0.323729 73 68 47 0.627393 0.740607 -0.240579 0.000000 
-0.035313 0.348485 -0.206893 103 106 104 0.288598 -0.531462 0.796404 0.000000 
-0.103744 0.148964 -0.332164 89 86 66 0.270858 0.945962 -0.178304 0.000000 
-0.062649 0.297291 -0.249243 44 43 30 -0.175905 0.708210 -0.683736 0.000000 
-0.101023 0.158383 -0.318384 67 69 60 -0.998642 -0.032417 0.040782 0.000000 
-0.093377 0.202013 -0.294765 134 126 115 0.182744 -0.132332 0.974214 0.000000 
-0.058551 0.312895 -0.239701 74 73 65 -0.552025 -0.143556 0.821377 0.000000 
-0.107370 0.221414 -0.328975 90 83 60 0.728060 -0.346928 -0.591244 0.000000 
-0.083194 0.239436 -0.278258 71 71 65 -0.904505 0.035967 -0.424944 0.000000 
-0.091816 0.205519 -0.294401 91 90 84 -0.403411 0.390755 -0.827388 0.000000 
-0.066881 0.287857 -0.251640 132 127 117 -0.489567 0.647709 -0.583779 0.000000 
-0.080830 0.238281 -0.279005 93 90 78 0.824914 -0.466666 0.318967 0.000000 
-0.071377 0.269688 -0.261370 125 122 114 0.199871 -0.559944 0.804061 0.000000 
-0.105018 0.156562 -0.322090 51 52 41 -0.470583 -0.121579 0.873940 0.000000 
-0.101635 0.165408 -0.312665 79 78 68 0.860908 0.031480 -0.507785 0.000000 
-0.077157 0.256226 -0.268483 115 111 101 -0.445934 -0.485427 0.752000 0.000000 
-0.096048 0.183139 -0.306715 67 65 54 0.950495 -0.257510 -0.173920 0.000000 
-0.086713 0.219635 -0.287918 94 92 79 -0.764999 0.457034 -0.453758 0.000000 
-0.086171 0.231571 -0.280921 111 107 99 -0.958767 0.192817 0.208775 0.000000 
-0.088570 0.220372 -0.286007 117 113 106 0.104614 -0.726407 0.679256 0.000000 
-0.061479 0.301912 -0.245051 111 107 97 -0.438686 0.173434 0.881745 0.000000 
-0.098419 0.179950 -0.304982 108 104 94 -0.497380 -0.540922 0.678245 0.000000 
-0.096398 0.280853 -0.264695 129 132 132 0.592294 0.391013 -0.704483 0.000000 
-0.079244 0.251775 -0.271640 95 94 89 -0.429966 0.150991 0.890130 0.000000 
-0.102108 0.150894 -0.322675 97 90 73 0.751814 0.341146 -0.564265 0.000000 
-0.093454 0.203114 -0.295666 61 61 53 0.918379 -0.347763 -0.188786 0.000000 
-0.043994 0.339581 -0.221120 65 67 65 0.436487 -0.800494 0.410716 0.000000 
-0.078432 0.253575 -0.271236 65 63 53 0.766011 0.554033 -0.325996 0.000000 
-0.086919 0.227990 -0.283191 96 94 85 -0.454509 -0.541082 0.707568 0.000000 
-0.086514 0.228043 -0.282213 123 120 113 -0.640382 -0.711000 0.290499 0.000000 
-0.076127 0.256545 -0.267371 104 106 100 -0.157696 0.578220 -0.800496 0.000000 
-0.055383 0.313494 -0.239205 82 79 68 0.748145 -0.566383 -0.345672 0.000000 
-0.080232 0.248797 -0.274205 89 88 81 -0.621904 0.520782 -0.584826 0.000000 
-0.060402 0.300383 -0.245136 124 120 113 0.203418 -0.405372 0.891232 0.000000 
-0.088283 0.222999 -0.284137 134 131 122 0.023843 -0.660598 0.750361 0.000000 
-0.100856 0.162438 -0.314184 77 77 65 -0.824420 0.501483 -0.262386 0.000000 
-0.101212 0.167290 -0.312292 75 73 60 -0.979283 0.201926 -0.015174 0.000000 
-0.069698 0.279191 -0.257468 113 109 100 -0.318711 -0.297958 0.899803 0.000000 
-0.052459 0.320668 -0.235735 83 80 67 -0.928318 0.361386 0.087324 0.000000 
-0.037720 0.346460 -0.210122 94 95 90 -0.460136 0.489822 0.740506 0.000000 
-0.101599 0.173014 -0.314122 67 66 56 -0.941714 -0.088741 -0.324500 0.000000 
-0.073127 0.262357 -0.265922 107 103 93 -0.714645 0.596900 -0.364682 0.000000 
-0.060791 0.307100 -0.243008 71 70 61 -0.551261 -0.341103 0.761420 0.000000 
-0.101338 0.156733 -0.316284 81 76 62 -0.519410 0.214771 -0.827096 0.000000 
-0.058638 0.304539 -0.243416 103 104 98 0.456952 -0.667853 0.587510 0.000000 
-0.095805 0.199248 -0.296432 72 72 63 0.990945 -0.084017 0.104734 0.000000 
-0.075592 0.253721 -0.270077 114 111 101 0.820734 -0.530344 0.212443 0.000000 
-0.101820 0.158942 -0.315164 106 104 94 0.807948 -0.391975 0.439972 0.000000 
-0.074880 0.268153 -0.262924 128 125 112 -0.021140 0.299695 -0.953801 0.000000 
-0.087113 0.222802 -0.287601 72 70 61 -0.026123 0.842807 -0.537582 0.000000 
-0.065068 0.293239 -0.251827 113 112 105 0.500205 -0.577678 0.645045 0.000000 
-0.099823 0.167027 -0.314458 61 65 57 -0.812536 0.072828 0.578343 0.000000 
-0.083842 0.236156 -0.278552 110 110 101 0.095885 0.360581 -0.927786 0.000000 
-0.097131 0.182129 -0.303107 121 119 111 0.542751 -0.479291 0.689711 0.000000 
-0.099335 0.166144 -0.311694 125 120 109 -0.925279 0.205460 -0.318817 0.000000 
-0.080257 0.240253 -0.278908 83 81 69 0.954691 -0.229609 -0.189327 0.000000 
-0.048785 0.335677 -0.224898 75 76 71 0.856457 -0.391833 -0.336078 0.000000 
-0.105631 0.150731 -0.322416 91 78 49 -0.394933 0.354347 0.847624 0.000000 
-0.076423 0.260237 -0.266062 128 129 125 -0.683216 -0.344054 0.644082 0.000000 
-0.084692 0.234908 -0.278901 124 121 116 -0.474432 -0.045119 0.879135 0.000000 
-0.095699 0.187517 -0.302054 74 71 62 0.716270 -0.286828 0.636150 0.000000 
-0.050645 0.334172 -0.226997 80 81 77 -0.698089 0.575385 0.426150 0.000000 
-0.107859 0.150132 -0.322925 105 98 76 -0.417706 -0.433833 0.798318 0.000000 
-0.096719 0.193855 -0.298050 136 125 111 -0.320250 -0.384606 0.865747 0.000000 
-0.079780 0.249833 -0.273087 56 55 45 -0.090203 -0.992235 0.085636 0.000000 
-0.056249 0.308705 -0.239597 120 120 111 -0.742832 0.306438 -0.595228 0.000000 
-0.060771 0.298082 -0.246987 116 109 99 0.683033 -0.213156 0.698592 0.000000 
-0.048130 0.334620 -0.226901 61 58 53 0.708891 -0.617632 -0.340594 0.000000 
-0.086365 0.228393 -0.282135 115 113 106 -0.135100 0.861443 -0.489555 0.000000 
-0.102119 0.163846 -0.313041 75 75 66 0.615465 0.135611 -0.776410 0.000000 
-0.083031 0.229632 -0.284692 67 67 56 -0.873182 -0.100480 0.476924 0.000000 
-0.060173 0.312695 -0.239431 94 92 79 0.134152 -0.235744 0.962511 0.000000 
-0.103072 0.161346 -0.316299 86 82 69 0.910165 0.136034 -0.391273 0.000000 
-0.067345 0.283096 -0.257149 103 98 82 0.233828 0.701483 -0.673235 0.000000 
-0.080964 0.256878 -0.269279 98 95 83 0.114277 -0.525096 0.843336 0.000000 
-0.103327 0.165753 -0.315471 60 62 54 -0.628547 0.006907 0.777741 0.000000 
-0.078565 0.253273 -0.270314 112 110 99 -0.382835 -0.117477 0.916317 0.000000 
-0.063397 0.299370 -0.245876 130 131 128 -0.381500 -0.185711 0.905522 0.000000 
-0.064849 0.292933 -0.249972 109 107 99 -0.369613 -0.178385 0.911902 0.000000 
-0.095305 0.183317 -0.305631 85 85 73 0.853085 -0.495292 -0.164112 0.000000 
-0.100066 0.174119 -0.308087 85 83 72 -0.953765 -0.142333 0.264713 0.000000 
-0.077796 0.255707 -0.270422 87 86 81 -0.457754 -0.102819 -0.883113 0.000000 
-0.087185 0.222850 -0.289020 68 68 55 0.079952 0.745738 -0.661425 0.000000 
-0.101155 0.161575 -0.314598 70 72 62 0.745886 -0.462680 0.479146 0.000000 
-0.074089 0.257561 -0.269649 81 78 67 0.996383 -0.031374 0.078975 0.000000 
-0.093628 0.202305 -0.297905 71 72 64 0.688180 -0.608965 0.394424 0.000000 
-0.056290 0.308174 -0.242628 64 63 53 -0.895622 0.039057 0.443097 0.000000 
-0.081760 0.237377 -0.279688 87 83 76 -0.767256 0.602954 -0.218552 0.000000 
-0.082637 0.237752 -0.278109 103 102 95 0.260738 -0.192482 0.946027 0.000000 
-0.068391 0.274275 -0.259980 94 91 82 -0.869293 0.494251 0.006697 0.000000 
-0.076030 0.265033 -0.265360 73 70 56 0.001342 0.519223 -0.854638 0.000000 
-0.097742 0.176059 -0.307203 95 92 80 0.690961 -0.480159 0.540388 0.000000 
-0.102325 0.151742 -0.318270 149 140 123 0.066490 0.254671 -0.964739 0.000000 
-0.097689 0.178843 -0.305351 112 109 100 0.706075 -0.546585 0.450226 0.000000 
-0.068058 0.275998 -0.258745 110 106 96 -0.676660 0.508754 -0.532261 0.000000 
-0.040933 0.342566 -0.217476 74 72 62 -0.816511 -0.246348 0.522133 0.000000 
-0.093016 0.206322 -0.296713 109 112 109 0.755949 -0.558464 0.341553 0.000000 
-0.051244 0.329559 -0.229368 98 95 90 0.023557 -0.588914 0.807852 0.000000 
-0.100106 0.165464 -0.311753 104 106 96 0.348324 -0.688472 0.636142 0.000000 
-0.057917 0.309001 -0.241011 113 110 100 -0.398955 -0.805921 0.437408 0.000000 
-0.107514 0.159497 -0.320034 94 92 75 -0.964135 0.215267 0.155253 0.000000 
-0.102153 0.173115 -0.313748 58 58 47 0.961033 0.206972 0.183242 0.000000 
-0.088019 0.216058 -0.290948 80 76 69 -0.971513 0.224577 -0.075686 0.000000 
-0.093017 0.194892 -0.300190 79 78 67 -0.946165 0.273639 0.172896 0.000000 
-0.099073 0.170899 -0.312720 58 62 55 0.977194 0.079496 -0.196906 0.000000 
-0.076977 0.258444 -0.267544 115 113 104 -0.664433 -0.061708 0.744796 0.000000 
-0.102674 0.162101 -0.315317 78 78 68 -0.865175 0.004012 0.501454 0.000000 
-0.104435 0.147687 -0.324836 104 96 77 0.223059 0.974541 -0.022664 0.000000 
-0.094611 0.196294 -0.296697 124 121 115 0.065417 -0.228342 0.971381 0.000000 
-0.086250 0.221665 -0.286490 109 103 91 0.733795 -0.594487 0.328831 0.000000 
-0.092478 0.208465 -0.293491 73 73 63 0.950171 -0.182465 0.252748 0.000000 
-0.093763 0.203684 -0.294646 99 96 88 -0.231051 0.412911 -0.880976 0.000000 
-0.076698 0.263417 -0.265294 134 128 116 -0.498455 0.240792 -0.832803 0.000000 
-0.103805 0.146077 -0.331801 76 79 70 -0.450034 -0.845940 0.286104 0.000000 
-0.053507 0.320780 -0.233111 91 91 85 -0.843603 0.531683 -0.075145 0.000000 
-0.098335 0.185855 -0.304286 52 53 45 0.942785 -0.142026 0.301637 0.000000 
-0.081069 0.245605 -0.275844 88 87 80 0.797052 -0.343419 0.496760 0.000000 
-0.049864 0.327650 -0.232583 69 69 60 0.759035 -0.295624 0.580062 0.000000 
-0.050570 0.329781 -0.229598 106 100 88 -0.521491 0.291468 -0.801931 0.000000 
-0.101587 0.158697 -0.315670 81 79 66 0.782905 -0.154778 0.602581 0.000000 
-0.077899 0.257032 -0.268545 102 102 96 0.943903 0.110812 -0.311074 0.000000 
-0.070402 0.270476 -0.261718 107 104 95 -0.480324 0.463818 -0.744420 0.000000 
-0.104602 0.149336 -0.331938 93 89 71 0.249134 0.939471 -0.235216 0.000000 
-0.071256 0.268718 -0.264493 54 54 42 0.337580 0.249897 -0.907519 0.000000 
-0.067755 0.284390 -0.252999 137 135 127 0.143599 -0.007792 0.989605 0.000000 
-0.103447 0.149254 -0.329642 77 77 58 0.580329 0.784605 -0.218204 0.000000 
-0.104316 0.149890 -0.329089 102 99 78 -0.280979 -0.959707 -0.003649 0.000000 
-0.101807 0.167394 -0.313457 59 60 49 -0.809085 0.097323 0.579578 0.000000 
-0.092264 0.196823 -0.299567 95 94 83 0.895208 -0.445632 -0.003944 0.000000 
-0.041593 0.341284 -0.217408 87 86 77 0.658254 -0.705838 -0.261715 0.000000 
-0.091797 0.212037 -0.293716 65 65 54 -0.668389 0.412975 -0.618633 0.000000 
-0.052023 0.324991 -0.231735 115 112 107 0.236805 -0.369180 0.898682 0.000000 
-0.068551 0.280616 -0.255660 135 134 126 0.199435 0.712708 -0.672512 0.000000 
-0.084446 0.231147 -0.280679 129 125 114 0.574113 -0.667845 0.473685 0.000000 
-0.080658 0.246188 -0.273815 112 110 105 0.387407 -0.374859 0.842257 0.000000 
-0.102010 0.148484 -0.318768 129 120 103 -0.180896 -0.296890 0.937621 0.000000 
-0.091239 0.204212 -0.295675 95 89 73 0.873952 -0.361477 0.324872 0.000000 
-0.094292 0.195565 -0.302889 64 64 48 -0.093039 0.429093 -0.898456 0.000000 
-0.101374 0.163801 -0.312844 91 90 78 -0.126624 -0.513775 0.848529 0.000000 
-0.104049 0.148705 -0.334458 99 99 91 0.132112 0.948804 -0.286910 0.000000 
-0.083823 0.230401 -0.283563 82 81 71 -0.903612 0.322824 -0.281550 0.000000 
-0.070832 0.268256 -0.263530 89 86 76 -0.861614 0.506591 -0.031406 0.000000 
-0.053710 0.327089 -0.231327 129 127 120 -0.102554 -0.830541 0.547435 0.000000 
-0.090563 0.218191 -0.287933 93 91 82 -0.909245 0.361681 0.206057 0.000000 
-0.091816 0.205519 -0.294401 91 90 84 0.403411 -0.390755 0.827388 0.000000 
-0.091357 0.204100 -0.297859 93 92 83 -0.997238 0.069327 0.026664 0.000000 
-0.049457 0.334604 -0.228189 49 50 42 -0.252784 0.847208 -0.467267 0.000000 
-0.055339 0.315019 -0.236585 135 131 121 -0.305879 0.436304 -0.846213 0.000000 
-0.100982 0.146361 -0.334212 72 72 55 0.745992 0.657709 -0.104468 0.000000 
-0.035137 0.348171 -0.207717 68 70 62 -0.859886 0.179081 0.478043 0.000000 
-0.091428 0.211083 -0.288704 109 105 90 -0.715359 0.001384 0.698755 0.000000 
-0.095355 0.199536 -0.295655 147 139 127 -0.778535 -0.123083 0.615413 0.000000 
-0.091262 0.209822 -0.291422 116 111 102 0.513877 -0.598119 0.614967 0.000000 
-0.054823 0.323719 -0.231399 99 98 89 -0.407689 -0.472660 0.781269 0.000000 
-0.102620 0.158155 -0.316125 105 100 85 0.762434 0.291285 -0.577795 0.000000 
-0.061071 0.304943 -0.243151 102 100 95 0.656035 0.104671 -0.747437 0.000000 
-0.038734 0.346255 -0.209946 121 123 120 0.403736 0.196766 -0.893466 0.000000 
-0.089227 0.221446 -0.286054 82 81 75 -0.993148 -0.032252 0.112327 0.000000 
-0.104534 0.150013 -0.321628 101 89 66 -0.084986 0.458367 0.884690 0.000000 
-0.098066 0.184518 -0.302223 109 108 102 -0.547680 -0.268347 0.792488 0.000000 
-0.108514 0.151643 -0.326038 77 73 55 0.107959 -0.675850 0.729090 0.000000 
-0.094818 0.188299 -0.305713 66 67 54 -0.910165 -0.136034 0.391273 0.000000 
-0.101509 0.146845 -0.333693 73 72 53 0.717865 0.678405 -0.156322 0.000000 
-0.080008 0.241716 -0.278307 85 84 74 -0.909982 0.184863 0.371158 0.000000 
-0.070078 0.270538 -0.262918 83 81 71 -0.785007 0.276411 0.554401 0.000000 
-0.101074 0.150670 -0.320524 107 101 87 0.925124 -0.360456 0.119238 0.000000 
-0.101193 0.165994 -0.316784 67 72 66 -0.625871 -0.372894 0.685008 0.000000 
-0.094254 0.198171 -0.295621 130 126 115 0.068364 -0.489710 0.869201 0.000000 
-0.104417 0.147832 -0.326193 72 71 57 -0.289299 -0.943956 0.158911 0.000000 
-0.083174 0.234088 -0.280127 111 105 91 0.734147 -0.356493 0.577876 0.000000 
-0.083173 0.239268 -0.277015 122 120 113 -0.198067 -0.466127 0.862261 0.000000 
-0.037782 0.345784 -0.211550 82 85 83 0.815933 0.443753 -0.370589 0.000000 
-0.051182 0.329699 -0.229507 103 103 101 0.102178 -0.525283 0.844770 0.000000 
-0.090524 0.212237 -0.290405 101 95 84 -0.410525 0.720480 -0.558908 0.000000 
-0.088963 0.220421 -0.288228 69 67 56 -0.870584 0.491481 0.023017 0.000000 
-0.058786 0.308046 -0.241810 110 108 101 -0.278122 -0.131742 0.951469 0.000000 
-0.099853 0.161759 -0.317282 62 62 50 0.909358 -0.097973 -0.404313 0.000000 
-0.088848 0.224327 -0.283712 137 130 118 -0.318346 -0.420838 0.849441 0.000000 
-0.046794 0.335799 -0.225451 64 59 46 -0.836742 0.297612 0.459663 0.000000 
-0.101038 0.169034 -0.311230 83 81 66 -0.992943 0.118544 0.003263 0.000000 
-0.093500 0.200778 -0.295251 107 104 96 0.351383 -0.291573 0.889672 0.000000 
-0.102828 0.147687 -0.326466 87 89 79 -0.366227 0.889409 -0.273549 0.000000 
-0.068321 0.276082 -0.260089 88 89 86 -0.962406 -0.046066 0.267681 0.000000 
-0.100350 0.163096 -0.315884 64 67 60 -0.988988 -0.003337 0.147959 0.000000 
-0.066555 0.282701 -0.254962 115 115 105 0.771119 -0.333239 0.542520 0.000000 
-0.068252 0.277363 -0.258108 105 107 103 -0.661664 0.438332 -0.608331 0.000000 
-0.096482 0.181173 -0.304052 121 123 119 -0.767450 0.168687 -0.618519 0.000000 
-0.089729 0.209876 -0.294676 81 76 65 0.854780 -0.518339 -0.025985 0.000000 
-0.088847 0.213002 -0.292516 79 71 60 -0.985963 0.064634 -0.153947 0.000000 
-0.100523 0.178107 -0.309838 60 61 53 0.960764 -0.181052 -0.210126 0.000000 
-0.102964 0.149467 -0.328993 84 81 55 0.434474 0.816429 -0.380364 0.000000 
-0.095277 0.194397 -0.298033 100 97 87 -0.016944 -0.400146 0.916295 0.000000 
-0.095099 0.200715 -0.296833 51 51 43 -0.918525 0.311925 -0.242928 0.000000 
-0.086538 0.220089 -0.287569 127 118 103 0.775427 -0.414537 0.476311 0.000000 
-0.081837 0.245877 -0.273936 103 100 93 -0.737925 -0.412515 0.534133 0.000000 
-0.109140 0.151819 -0.325344 60 61 46 -0.640508 0.479120 -0.600161 0.000000 
-0.100727 0.164765 -0.312268 90 90 81 0.266563 -0.473034 0.839751 0.000000 
-0.101710 0.143628 -0.333156 82 80 69 -0.673853 0.617561 -0.405636 0.000000 
-0.060838 0.297646 -0.248695 93 95 90 -0.697859 -0.287165 0.656148 0.000000 
-0.081362 0.241987 -0.275531 126 123 117 -0.528648 0.698750 -0.481954 0.000000 
-0.103987 0.158662 -0.317833 83 77 60 -0.643939 -0.101211 0.758352 0.000000 
-0.075121 0.256067 -0.269446 89 84 73 0.755855 -0.530568 0.383641 0.000000 
-0.074194 0.269147 -0.262818 134 128 116 -0.044143 0.416018 -0.908284 0.000000 
-0.063768 0.291568 -0.250520 103 103 98 -0.362631 0.621888 -0.694085 0.000000 
-0.096831 0.194108 -0.299568 67 65 56 -0.878519 0.396313 0.266720 0.000000 
-0.096780 0.192554 -0.300418 84 82 74 0.870269 -0.245847 0.426839 0.000000 
-0.106700 0.148072 -0.329435 82 87 80 0.663279 0.724836 -0.186210 0.000000 
-0.102893 0.148967 -0.330295 75 73 53 -0.328811 -0.938118 0.108709 0.000000 
-0.045157 0.339395 -0.221775 48 48 40 -0.688805 0.572058 -0.445305 0.000000 
-0.088931 0.223418 -0.285710 91 89 83 0.630718 0.627372 0.456727 0.000000 
-0.081998 0.232977 -0.282660 67 67 55 0.890231 -0.257112 -0.376008 0.000000 
-0.072070 0.268456 -0.260839 97 95 85 0.663050 0.452611 -0.596244 0.000000 
-0.104330 0.148686 -0.333551 88 88 74 -0.180094 -0.978876 0.096785 0.000000 
-0.082755 0.237081 -0.277773 127 125 117 0.026444 -0.591519 0.805857 0.000000 
-0.090148 0.209395 -0.292711 129 120 106 0.767656 -0.490583 0.412350 0.000000 
-0.037890 0.345713 -0.212091 67 67 59 0.445433 -0.880711 -0.161052 0.000000 
-0.101954 0.160777 -0.314448 100 98 87 -0.045503 -0.352327 0.934770 0.000000 
-0.097377 0.180148 -0.304785 90 89 82 -0.533852 0.530484 -0.658474 0.000000 
-0.103419 0.154416 -0.322316 51 47 29 -0.299536 -0.225717 0.927001 0.000000 
-0.067189 0.285292 -0.253337 123 124 119 -0.197672 -0.117092 0.973250 0.000000 
-0.064004 0.296826 -0.246087 137 134 126 -0.197631 -0.577572 0.792056 0.000000 
-0.071417 0.281909 -0.256079 133 136 136 -0.238041 0.570987 -0.785691 0.000000 
-0.053729 0.324059 -0.232998 85 86 82 -0.998035 0.035000 0.051970 0.000000 
-0.103055 0.147924 -0.325622 96 90 73 -0.121289 0.989946 -0.072773 0.000000 
-0.091340 0.202935 -0.298331 95 90 75 0.881059 -0.003975 -0.472990 0.000000 
-0.093111 0.207103 -0.292298 118 115 108 0.867314 -0.396181 0.301342 0.000000 
-0.107108 0.150967 -0.327223 68 66 43 -0.031191 -0.877417 0.478714 0.000000 
-0.072783 0.261118 -0.268022 70 70 60 0.960616 -0.252794 -0.115378 0.000000 
-0.094185 0.202543 -0.295988 74 72 63 0.735733 -0.677098 -0.015357 0.000000 
-0.078224 0.246737 -0.275136 89 85 74 -0.961555 0.204446 -0.183342 0.000000 
-0.093059 0.205044 -0.294929 65 65 58 -0.994747 -0.076690 -0.067798 0.000000 
-0.072488 0.268711 -0.260626 103 100 90 0.179272 0.691039 -0.700233 0.000000 
-0.102011 0.145136 -0.333214 45 45 30 -0.019576 -0.914870 0.403274 0.000000 
-0.097536 0.189152 -0.300337 102 101 95 -0.449158 -0.093749 0.888520 0.000000 
-0.075244 0.256050 -0.269169 107 103 92 0.657267 -0.526150 0.539598 0.000000 
-0.095396 0.185811 -0.303376 89 85 71 0.832753 -0.474747 0.284848 0.000000 
-0.040836 0.344411 -0.214061 93 93 87 -0.852777 0.517304 -0.071887 0.000000 
-0.054020 0.319405 -0.234416 121 118 110 -0.340595 0.467328 -0.815843 0.000000 
-0.104158 0.148261 -0.324436 87 85 68 -0.027785 0.999228 0.027785 0.000000 
-0.039617 0.343561 -0.215342 80 78 70 0.792550 0.347441 -0.501148 0.000000 
-0.089364 0.220903 -0.285040 131 130 123 -0.023793 0.659209 -0.751583 0.000000 
-0.104702 0.146198 -0.335337 69 69 56 -0.993976 -0.077496 -0.077496 0.000000 
-0.102124 0.148227 -0.325743 106 101 86 0.595491 -0.774912 -0.211902 0.000000 
-0.102702 0.148572 -0.332469 108 113 105 0.615578 0.739648 -0.272000 0.000000 
-0.067054 0.282849 -0.255052 102 97 88 -0.417664 0.657280 -0.627328 0.000000 
-0.048566 0.332723 -0.229050 103 100 93 0.985450 -0.154975 -0.069798 0.000000 
-0.074780 0.259268 -0.266031 130 127 118 0.299735 -0.451931 0.840189 0.000000 
-0.053946 0.320335 -0.234091 106 102 96 0.045194 -0.334438 0.941333 0.000000 
-0.073547 0.259716 -0.268049 85 80 75 0.873427 -0.477058 0.097677 0.000000 
-0.070704 0.276764 -0.258983 101 98 91 0.399456 0.252839 -0.881197 0.000000 
-0.049017 0.335461 -0.225490 68 69 62 0.803184 -0.553441 -0.220452 0.000000 
-0.060980 0.310076 -0.239538 136 133 124 -0.051495 0.519125 -0.853146 0.000000 
-0.081135 0.244618 -0.277204 112 112 108 0.632040 -0.344601 0.694101 0.000000 
-0.097460 0.179184 -0.309587 72 72 59 -0.853492 -0.173667 0.491315 0.000000 
-0.055725 0.319696 -0.234056 129 127 121 0.272135 -0.552136 0.788091 0.000000 
-0.081765 0.241697 -0.274927 132 128 118 0.037429 0.547575 -0.835919 0.000000 
-0.107067 0.149104 -0.327813 81 78 60 -0.931270 -0.362377 0.037666 0.000000 
-0.099422 0.178494 -0.306369 58 58 49 -0.654330 0.731310 0.192450 0.000000 
-0.061501 0.300178 -0.244853 99 99 92 -0.201996 -0.348121 0.915429 0.000000 
-0.108063 0.153705 -0.322190 98 94 77 0.809674 0.362517 -0.461530 0.000000 
-0.101526 0.166087 -0.311689 98 96 83 -0.630964 -0.590582 0.503088 0.000000 
-0.098109 0.185024 -0.302633 107 104 95 -0.707216 -0.217005 0.672870 0.000000 
-0.071319 0.275898 -0.259854 103 101 95 -0.985860 -0.055096 -0.158253 0.000000 
-0.062701 0.291907 -0.250768 85 86 80 0.858829 -0.405515 0.313002 0.000000 
-0.101100 0.168263 -0.312031 80 77 62 -0.989954 0.114895 -0.082399 0.000000 
-0.091512 0.200067 -0.296926 95 92 78 0.821748 -0.221887 0.524878 0.000000 
-0.066535 0.289514 -0.250922 112 111 104 0.477446 0.331516 -0.813721 0.000000 
-0.089548 0.216267 -0.291347 58 58 51 -0.166992 -0.921965 -0.349420 0.000000 
-0.106239 0.156866 -0.319833 115 107 85 0.941785 -0.034596 -0.334430 0.000000 
-0.098694 0.179529 -0.306172 70 70 60 0.979315 -0.202338 0.001156 0.000000 
-0.100127 0.165855 -0.311756 80 83 76 0.362296 -0.667214 0.650820 0.000000 
-0.032197 0.351244 -0.204986 110 112 109 0.965108 0.100985 -0.241597 0.000000 
-0.082843 0.233146 -0.281363 98 93 80 0.873926 -0.387567 0.293335 0.000000 
-0.091023 0.218770 -0.288995 65 64 52 -0.653184 0.649876 -0.388603 0.000000 
-0.091561 0.215757 -0.288747 85 83 76 -0.860216 -0.134907 0.491760 0.000000 
-0.093053 0.199007 -0.296544 108 108 102 0.589296 -0.596050 0.545394 0.000000 
-0.039918 0.343318 -0.215490 80 77 67 -0.372676 0.887539 -0.270901 0.000000 
-0.102770 0.156134 -0.316929 113 112 101 -0.453150 -0.105876 0.885125 0.000000 
-0.099727 0.167231 -0.310679 117 113 101 -0.541893 0.585785 -0.602667 0.000000 
-0.104325 0.159405 -0.317430 114 111 98 -0.513297 -0.178082 0.839532 0.000000 
-0.096924 0.184586 -0.302908 83 84 79 0.661055 -0.384104 0.644570 0.000000 
-0.098248 0.173689 -0.308528 76 76 68 0.750700 -0.418881 0.510870 0.000000 
-0.102854 0.152155 -0.320797 59 47 26 -0.843937 -0.219696 -0.489392 0.000000 
-0.096196 0.187103 -0.301353 105 103 93 -0.664612 0.399430 -0.631464 0.000000 
-0.103659 0.153244 -0.319121 99 84 55 0.697046 0.570613 -0.434198 0.000000 
-0.084967 0.231183 -0.281969 102 99 88 -0.231267 0.793139 -0.563424 0.000000 
-0.091403 0.207623 -0.292268 122 118 112 -0.705841 0.549725 -0.446756 0.000000 
-0.087651 0.217050 -0.290614 79 75 64 -0.957819 0.279311 0.067596 0.000000 
-0.067983 0.276385 -0.259213 92 88 78 0.895654 -0.352023 0.271815 0.000000 
-0.105403 0.147802 -0.323157 90 87 71 0.360410 0.882174 0.303106 0.000000 
-0.097438 0.186612 -0.301198 107 107 103 -0.152453 0.531366 -0.833312 0.000000 
-0.084507 0.241875 -0.275121 131 128 122 -0.874505 0.458351 -0.158604 0.000000 
-0.080765 0.247935 -0.272492 127 123 116 -0.493064 -0.233557 0.838057 0.000000 
-0.102904 0.159480 -0.316078 88 83 70 0.856408 0.128968 -0.499933 0.000000 
-0.074178 0.265146 -0.264170 116 112 103 0.740920 0.055891 -0.669264 0.000000 
-0.073188 0.261794 -0.266755 87 84 79 0.949333 -0.188780 0.251254 0.000000 
-0.054873 0.316489 -0.238488 85 87 83 -0.644580 -0.308558 0.699506 0.000000 
-0.095243 0.198641 -0.296299 115 113 107 0.536052 0.596929 -0.596929 0.000000 
-0.061145 0.296010 -0.248082 100 100 94 -0.742245 0.580536 -0.334738 0.000000 
-0.082555 0.233710 -0.280866 101 95 82 -0.801098 0.346982 -0.487694 0.000000 
-0.056967 0.314857 -0.235772 98 98 89 -0.057841 -0.307202 0.949885 0.000000 
-0.079760 0.255953 -0.268974 96 94 82 0.127243 0.539684 -0.832196 0.000000 
-0.081728 0.251556 -0.270932 91 90 77 0.198574 -0.532056 0.823095 0.000000 
-0.099974 0.165985 -0.311882 72 72 62 -0.734452 0.443972 -0.513291 0.000000 
-0.075120 0.258174 -0.266947 134 131 121 0.319500 -0.566752 0.759415 0.000000 
-0.058365 0.304787 -0.242823 125 120 110 0.239221 -0.773949 0.586325 0.000000 
-0.068368 0.284260 -0.254352 112 109 98 -0.728179 -0.216738 0.650215 0.000000 
-0.090094 0.202493 -0.298092 83 82 68 0.956006 -0.152484 -0.250603 0.000000 
-0.085425 0.230479 -0.282775 78 77 70 -0.482597 0.593578 -0.644023 0.000000 
-0.037146 0.348400 -0.207698 122 120 108 0.558424 -0.173096 -0.811295 0.000000 
-0.081516 0.240662 -0.275513 105 106 101 -0.504260 -0.622315 0.598704 0.000000 
-0.085963 0.230190 -0.281619 116 112 104 -0.767362 -0.043971 -0.639705 0.000000 
-0.059347 0.308461 -0.241062 99 97 90 0.244106 -0.738617 0.628376 0.000000 
-0.100999 0.170900 -0.312333 81 79 64 0.885088 0.229797 -0.404739 0.000000 
-0.087564 0.222442 -0.289420 96 95 87 0.092200 -0.718578 0.689308 0.000000 
-0.057646 0.308530 -0.240924 117 115 108 -0.191171 -0.787625 0.585748 0.000000 
-0.067218 0.275555 -0.258848 96 96 87 0.750317 -0.049831 -0.659197 0.000000 
-0.101763 0.170778 -0.313354 80 80 68 -0.981985 -0.058324 0.179733 0.000000 
-0.100965 0.164470 -0.317152 63 63 49 -0.754798 -0.185255 0.629254 0.000000 
-0.078564 0.252420 -0.270047 116 116 113 0.058189 0.594660 -0.801869 0.000000 
-0.104216 0.163872 -0.316219 68 69 62 0.698116 0.035401 -0.715109 0.000000 
-0.102702 0.160410 -0.314676 122 117 103 -0.434696 -0.132547 0.890770 0.000000 
-0.051888 0.325972 -0.230048 131 128 118 -0.586355 -0.723552 0.364226 0.000000 
-0.057132 0.317017 -0.237899 53 51 38 -0.126103 -0.606777 0.784805 0.000000 
-0.096591 0.200084 -0.297238 77 76 64 0.857971 -0.166869 0.485839 0.000000 
-0.094429 0.198796 -0.295831 126 121 110 -0.056052 -0.452516 0.889993 0.000000 
-0.082140 0.240161 -0.276652 113 110 102 0.355196 -0.543337 0.760671 0.000000 
-0.095140 0.199800 -0.294849 130 129 125 -0.208145 -0.131527 0.969214 0.000000 
-0.094466 0.202160 -0.295146 79 78 71 0.717698 -0.694959 0.044057 0.000000 
-0.050900 0.331837 -0.229728 77 77 74 -0.718599 0.114087 -0.686003 0.000000 
-0.046728 0.335967 -0.225754 62 57 39 0.800628 -0.323116 -0.504570 0.000000 
-0.052355 0.326656 -0.231313 95 94 89 0.664495 0.434670 -0.607872 0.000000 
-0.098582 0.180884 -0.305013 100 98 87 -0.967470 -0.248354 0.048188 0.000000 
-0.098115 0.178704 -0.310369 69 69 56 0.673401 -0.117436 -0.729890 0.000000 
-0.064795 0.287024 -0.254063 80 78 66 -0.995154 -0.018449 0.096585 0.000000 
-0.094518 0.204030 -0.293527 112 110 100 0.233455 -0.728569 0.643961 0.000000 
-0.075609 0.255281 -0.269578 97 92 85 -0.656297 0.606198 -0.449221 0.000000 
-0.094456 0.204229 -0.294178 75 74 65 -0.657729 0.405903 -0.634535 0.000000 
-0.066785 0.276916 -0.257078 102 101 91 -0.318885 0.861143 0.395910 0.000000 
-0.103981 0.156954 -0.321127 54 53 40 -0.487952 -0.189510 0.852050 0.000000 
-0.093146 0.199511 -0.295084 129 127 121 -0.261433 0.350055 -0.899508 0.000000 
-0.101411 0.147828 -0.319109 131 128 118 0.550838 -0.774366 0.311343 0.000000 
-0.093802 0.196194 -0.297546 118 114 99 -0.679803 0.380229 -0.627131 0.000000 
-0.082464 0.237378 -0.278430 94 93 86 0.504857 -0.381484 0.774331 0.000000 
-0.091951 0.208070 -0.292544 92 88 77 -0.463164 0.781690 0.417660 0.000000 
-0.081298 0.241050 -0.276763 100 98 91 0.560027 -0.355496 0.748326 0.000000 
-0.099812 0.169822 -0.309318 102 103 94 0.192665 -0.485395 0.852802 0.000000 
-0.101916 0.146849 -0.335851 78 78 60 -0.613378 -0.751427 0.243155 0.000000 
-0.095854 0.197072 -0.298214 62 62 54 -0.950885 0.264957 -0.160050 0.000000 
-0.046578 0.336984 -0.225161 69 66 51 -0.872374 -0.219212 0.436933 0.000000 
-0.092416 0.214727 -0.289315 136 126 115 -0.568263 0.248909 -0.784297 0.000000 
-0.087908 0.216848 -0.289268 90 89 81 0.800536 -0.548717 0.240938 0.000000 
-0.101814 0.147343 -0.334206 68 67 50 0.784920 0.615595 -0.070313 0.000000 
-0.081576 0.244532 -0.275061 95 94 88 -0.835393 0.534008 0.130210 0.000000 
-0.097404 0.183139 -0.302832 110 108 98 -0.504878 0.403576 -0.763036 0.000000 
-0.069039 0.284106 -0.254440 100 100 93 -0.845451 -0.428175 0.319185 0.000000 
-0.062422 0.299538 -0.245332 102 101 95 0.439190 0.151197 -0.885580 0.000000 
-0.087516 0.220936 -0.286547 98 93 87 -0.517229 0.625055 -0.584620 0.000000 
-0.096024 0.187922 -0.300014 125 123 117 0.504237 -0.717247 0.480938 0.000000 
-0.042556 0.339813 -0.218841 98 93 81 0.733872 -0.672103 0.098536 0.000000 
-0.101677 0.149467 -0.319743 138 129 112 -0.746298 0.603085 -0.281652 0.000000 
-0.102716 0.147989 -0.319828 131 126 118 0.252327 0.515490 -0.818902 0.000000 
-0.106386 0.155518 -0.320375 106 98 75 0.848900 0.083895 -0.521853 0.000000 
-0.097940 0.279583 -0.267440 131 133 131 -0.603668 -0.383255 0.699071 0.000000 
-0.083141 0.232499 -0.281222 88 82 75 0.912335 -0.342668 0.224108 0.000000 
-0.103779 0.159105 -0.317100 78 76 64 0.676436 0.159609 -0.718999 0.000000 
-0.066524 0.288824 -0.252127 129 121 108 0.475130 0.585938 -0.656452 0.000000 
-0.092898 0.205521 -0.295735 55 56 49 0.932048 -0.322685 0.164805 0.000000 
-0.104520 0.158216 -0.321239 55 53 38 -0.307163 -0.269314 0.912755 0.000000 
-0.051033 0.330563 -0.229021 103 102 98 -0.243670 0.802405 -0.544766 0.000000 
-0.056447 0.309984 -0.240223 104 101 96 0.806681 -0.544471 0.229819 0.000000 
-0.070195 0.273335 -0.259155 127 125 119 0.227748 -0.460021 0.858203 0.000000 
-0.045193 0.338426 -0.220270 112 114 111 0.199480 -0.360212 0.911293 0.000000 
-0.081688 0.244742 -0.274982 95 93 87 -0.904841 0.425731 -0.003906 0.000000 
-0.101860 0.148225 -0.327108 91 89 74 0.961860 -0.193425 0.193425 0.000000 
-0.089316 0.218676 -0.287031 111 108 102 0.112999 -0.585538 0.802730 0.000000 
-0.084057 0.231568 -0.281495 93 87 79 -0.610852 0.757706 -0.229655 0.000000 
-0.098229 0.178052 -0.305521 112 110 100 0.137370 -0.469950 0.871938 0.000000 
-0.105847 0.158530 -0.319146 103 99 85 0.854340 -0.208705 -0.475968 0.000000 
-0.078799 0.248913 -0.272607 105 101 95 0.373258 -0.459764 0.805789 0.000000 
-0.082704 0.237854 -0.275565 92 92 81 -0.416054 -0.137738 0.898848 0.000000 
-0.061598 0.296934 -0.247378 101 100 94 0.228281 -0.425230 0.875824 0.000000 
-0.067182 0.289923 -0.249952 136 133 125 0.364968 0.249715 -0.896906 0.000000 
-0.080094 0.244860 -0.273608 126 125 120 0.304888 -0.563484 0.767807 0.000000 
-0.103229 0.149101 -0.329608 90 88 67 -0.434424 -0.879156 0.195859 0.000000 
-0.077737 0.254812 -0.269285 115 113 108 -0.198340 0.008119 0.980100 0.000000 
-0.058108 0.305388 -0.242536 125 122 115 -0.238699 0.469796 -0.849891 0.000000 
-0.084949 0.231716 -0.280738 101 97 89 -0.100977 -0.774158 0.624887 0.000000 
-0.044429 0.339019 -0.221601 73 71 65 0.402628 0.550532 -0.731304 0.000000 
-0.085560 0.233599 -0.280575 97 95 89 0.902893 -0.361450 0.232674 0.000000 
-0.054635 0.318803 -0.234494 113 113 109 -0.353255 -0.302146 0.885392 0.000000 
-0.081149 0.248378 -0.273109 101 99 93 0.633537 -0.001374 -0.773712 0.000000 
-0.103017 0.157286 -0.317101 101 94 80 0.600599 0.229320 -0.765959 0.000000 
-0.066928 0.283257 -0.256694 86 84 74 0.750666 0.229413 -0.619573 0.000000 
-0.095626 0.195925 -0.301614 60 59 50 -0.610820 0.460207 -0.644289 0.000000 
-0.081403 0.241545 -0.278835 49 49 38 0.153003 -0.674122 0.722599 0.000000 
-0.093478 0.193878 -0.300272 83 81 70 0.912294 -0.359475 -0.196208 0.000000 
-0.058016 0.314473 -0.238143 113 111 106 -0.793175 -0.247770 0.556313 0.000000 
-0.079579 0.245562 -0.274612 96 91 86 0.645179 -0.326652 0.690683 0.000000 
-0.101804 0.164253 -0.318133 56 58 46 0.579482 0.270004 -0.768959 0.000000 
-0.040818 0.344477 -0.213527 114 113 108 0.941638 -0.307557 -0.136842 0.000000 
-0.062605 0.295042 -0.247709 133 131 120 0.042241 0.470097 -0.881603 0.000000 
-0.052767 0.321428 -0.236362 99 98 87 -0.931140 -0.090024 0.353376 0.000000 
-0.033177 0.351123 -0.203139 88 88 83 -0.859769 -0.508108 0.051226 0.000000 
-0.096167 0.195048 -0.297933 112 110 100 -0.862308 -0.068482 0.501732 0.000000 
-0.097841 0.175983 -0.310084 77 77 62 -0.928444 -0.098656 0.358133 0.000000 
-0.045583 0.337698 -0.224239 76 75 68 -0.271104 0.853136 -0.445714 0.000000 
-0.106502 0.158022 -0.321132 48 48 36 -0.962266 0.201405 0.182975 0.000000 
-0.068556 0.275938 -0.259845 85 81 69 0.943119 -0.332049 0.016413 0.000000 
-0.078792 0.259578 -0.266664 106 103 92 -0.172703 -0.473827 0.863517 0.000000 
-0.046384 0.336658 -0.222646 94 91 90 -0.239622 -0.596705 0.765849 0.000000 
-0.101612 0.165196 -0.317447 67 71 65 -0.559663 -0.407778 0.721453 0.000000 
-0.104733 0.145632 -0.333674 59 56 40 0.974960 -0.124223 -0.184452 0.000000 
-0.104893 0.149199 -0.332496 88 86 71 -0.122593 -0.971900 0.200952 0.000000 
-0.093026 0.194402 -0.299754 88 88 77 -0.924006 0.375753 0.070872 0.000000 
-0.093761 0.194791 -0.298326 115 110 95 0.529500 -0.519414 0.670700 0.000000 
-0.100366 0.171910 -0.308827 68 69 62 0.851285 0.186358 -0.490495 0.000000 
-0.082350 0.243073 -0.275097 113 111 101 0.479241 -0.097545 -0.872246 0.000000 
-0.039764 0.344977 -0.212430 111 114 112 0.775087 0.155017 -0.612544 0.000000 
-0.074617 0.261177 -0.268292 45 44 31 -0.245462 -0.461957 0.852258 0.000000 
-0.103375 0.150986 -0.318939 111 101 83 -0.938875 0.240630 0.246194 0.000000 
-0.097195 0.188127 -0.300197 124 120 113 0.749928 -0.192487 0.632896 0.000000 
-0.089112 0.218095 -0.287654 95 91 81 0.124876 -0.469361 0.874132 0.000000 
-0.104473 0.157775 -0.317871 85 80 64 -0.425264 0.101784 0.899328 0.000000 
-0.096056 0.281857 -0.263949 126 130 130 -0.500144 -0.476882 0.722800 0.000000 
-0.104615 0.159552 -0.322126 84 84 77 -0.431069 -0.280732 0.857536 0.000000 
-0.095277 0.187877 -0.302450 85 85 77 0.821639 -0.272840 0.500467 0.000000 
-0.107327 0.153564 -0.321931 107 102 83 0.532743 0.475961 -0.699747 0.000000 
-0.068993 0.286105 -0.254765 68 67 54 0.610116 -0.656920 0.442961 0.000000 
-0.105128 0.150386 -0.329769 116 117 105 0.064785 0.959071 -0.275654 0.000000 
-0.095545 0.199632 -0.296191 96 95 89 -0.969412 0.221761 -0.105178 0.000000 
-0.054621 0.313928 -0.239621 118 114 104 -0.717698 -0.044057 0.694959 0.000000 
-0.090827 0.218912 -0.286678 127 121 108 0.209344 -0.752088 0.624931 0.000000 
-0.101858 0.164041 -0.312777 83 83 74 -0.597610 -0.361841 0.715495 0.000000 
-0.044160 0.339908 -0.221659 72 75 74 0.147566 0.576847 -0.803412 0.000000 
-0.095798 0.184618 -0.305537 75 77 71 -0.939319 0.265007 0.217833 0.000000 
-0.101450 0.165913 -0.312552 89 86 71 0.895472 -0.283640 -0.343042 0.000000 
-0.100876 0.166782 -0.316123 62 63 49 0.639978 0.333831 -0.692088 0.000000 
-0.101196 0.167092 -0.312025 84 81 67 -0.987847 0.100080 0.118918 0.000000 
-0.095890 0.186654 -0.305981 80 79 68 -0.794631 -0.052409 0.604826 0.000000 
-0.060142 0.310432 -0.239810 135 135 131 0.378448 -0.448708 0.809591 0.000000 
-0.097515 0.177156 -0.306075 101 103 93 0.610122 -0.401788 0.682874 0.000000 
-0.050371 0.331580 -0.228273 91 88 86 0.461200 -0.642325 0.612138 0.000000 
-0.104097 0.148280 -0.320357 95 91 74 0.660031 -0.126643 -0.740487 0.000000 
-0.054769 0.325573 -0.231098 93 92 83 -0.397674 -0.097698 0.912311 0.000000 
-0.085808 0.226052 -0.284463 98 97 89 0.756743 -0.406974 0.511578 0.000000 
-0.087741 0.216926 -0.290090 80 79 72 0.922774 -0.367184 -0.116894 0.000000 
