ply
format ascii 1.0
comment Created by Open3D
obj_info Generated by CloudCompare!
element vertex 612
property float x
property float y
property float z
property uchar red
property uchar green
property uchar blue
property float nx
property float ny
property float nz
property float scalar_leaf6
end_header
-0.150295 -0.048438 -0.741570 78 73 64 -0.563560 -0.795159 0.223880 0.000000 
-0.129485 -0.032900 -0.562160 98 88 68 0.168754 -0.979264 0.112092 0.000000 
-0.135467 -0.035792 -0.619597 87 84 77 0.216266 0.959265 -0.181769 0.000000 
-0.131157 -0.031219 -0.570142 106 88 68 0.922677 0.250339 -0.293254 0.000000 
-0.138131 -0.034833 -0.640958 102 95 82 0.610888 -0.732745 0.299832 0.000000 
-0.129931 -0.032944 -0.595740 73 62 50 -0.837128 0.540497 0.084141 0.000000 
-0.126634 -0.028812 -0.539981 109 104 95 -0.938812 0.339848 0.055990 0.000000 
-0.129655 -0.033566 -0.592562 97 92 82 -0.873911 0.480860 0.071084 0.000000 
-0.141146 -0.038524 -0.676965 78 76 73 0.733890 0.584183 -0.346605 0.000000 
-0.132819 -0.032787 -0.622494 76 74 64 -0.887134 -0.408879 0.214034 0.000000 
-0.128414 -0.031073 -0.549622 117 100 81 0.622213 -0.752551 0.215680 0.000000 
-0.154647 -0.048514 -0.751075 92 89 79 0.571718 0.795501 -0.200791 0.000000 
-0.156586 -0.053038 -0.768164 93 88 76 -0.915594 0.305198 0.261805 0.000000 
-0.130216 -0.032144 -0.590119 81 70 60 -0.961787 0.273580 0.010943 0.000000 
-0.132306 -0.033187 -0.620216 67 64 56 -0.901455 -0.407429 0.146220 0.000000 
-0.130240 -0.030653 -0.570250 84 72 55 0.461327 0.547929 -0.697819 0.000000 
-0.129494 -0.030925 -0.546860 88 72 57 0.300984 -0.943442 0.139019 0.000000 
-0.143838 -0.042049 -0.696351 65 62 50 0.783401 0.590233 -0.194700 0.000000 
-0.127530 -0.029219 -0.547530 85 79 66 -0.515128 0.853843 -0.074799 0.000000 
-0.129629 -0.027762 -0.560593 102 93 76 -0.185889 0.961087 -0.204346 0.000000 
-0.139975 -0.038583 -0.671361 62 60 54 0.888414 0.429039 -0.163237 0.000000 
-0.133190 -0.034105 -0.626882 66 62 50 0.955851 0.255866 -0.144505 0.000000 
-0.131834 -0.032856 -0.615685 74 69 58 -0.983674 -0.134302 0.119783 0.000000 
-0.126942 -0.027412 -0.549536 89 74 52 -0.946065 -0.322146 -0.034379 0.000000 
-0.138916 -0.037667 -0.663422 63 57 42 -0.868605 -0.480963 0.119164 0.000000 
-0.128796 -0.030927 -0.551821 76 64 46 0.696509 -0.716368 -0.041138 0.000000 
-0.128312 -0.028885 -0.566888 72 62 49 -0.517083 -0.853397 0.065862 0.000000 
-0.127963 -0.030502 -0.557834 85 80 71 -0.872874 0.487900 -0.006684 0.000000 
-0.128976 -0.031155 -0.550347 82 78 71 -0.434482 0.897746 0.072642 0.000000 
-0.128095 -0.031302 -0.563943 92 73 50 -0.919327 0.354456 -0.170873 0.000000 
-0.129325 -0.031313 -0.595867 80 70 60 -0.699229 -0.708062 0.098628 0.000000 
-0.127575 -0.030583 -0.571925 106 96 77 0.953147 -0.292780 0.076097 0.000000 
-0.130536 -0.030510 -0.592421 102 94 79 0.271059 0.962562 0.001205 0.000000 
-0.126570 -0.029986 -0.524196 98 88 76 -0.924566 0.374896 -0.068042 0.000000 
-0.151829 -0.047330 -0.739251 71 67 56 -0.231640 -0.961894 0.145266 0.000000 
-0.128057 -0.032879 -0.561909 109 104 94 0.693485 -0.719117 0.044144 0.000000 
-0.126701 -0.029206 -0.538315 114 106 94 -0.781135 0.612799 -0.119607 0.000000 
-0.128256 -0.029919 -0.542852 104 93 72 0.342907 -0.938820 -0.032107 0.000000 
-0.130504 -0.032384 -0.603676 75 69 59 0.997518 -0.015834 -0.068612 0.000000 
-0.139877 -0.037324 -0.665409 68 62 46 0.634637 0.729596 -0.254805 0.000000 
-0.141374 -0.037068 -0.672832 82 78 65 -0.598911 -0.772240 0.212018 0.000000 
-0.132139 -0.030087 -0.586420 114 107 95 -0.211710 0.965034 -0.154561 0.000000 
-0.129510 -0.029446 -0.578341 100 92 78 -0.361469 -0.928533 0.084656 0.000000 
-0.135665 -0.034738 -0.640889 55 48 37 0.503533 0.844203 -0.183782 0.000000 
-0.130350 -0.030004 -0.559652 99 79 56 -0.953755 -0.105973 0.281286 0.000000 
-0.127727 -0.029689 -0.533595 110 94 78 -0.062118 0.992763 -0.102777 0.000000 
-0.127286 -0.028805 -0.562816 82 67 47 0.731383 0.675687 0.092339 0.000000 
-0.132268 -0.030963 -0.604814 104 100 90 -0.017424 0.999343 0.031774 0.000000 
-0.126174 -0.028458 -0.541577 117 104 84 0.847810 -0.518507 0.111212 0.000000 
-0.131669 -0.029117 -0.570762 90 70 45 0.080247 -0.943229 0.322303 0.000000 
-0.135713 -0.036710 -0.642194 75 71 61 -0.693281 0.713888 -0.098620 0.000000 
-0.129482 -0.031908 -0.596861 80 66 49 0.951418 -0.098152 -0.291838 0.000000 
-0.128720 -0.029519 -0.575986 97 89 74 -0.600361 -0.799081 -0.032187 0.000000 
-0.127479 -0.030020 -0.559156 86 80 68 0.936920 -0.348293 0.029560 0.000000 
-0.127905 -0.031101 -0.568414 99 90 73 -0.899069 0.425141 0.104543 0.000000 
-0.130908 -0.031035 -0.574294 83 74 53 0.959382 0.178643 0.218342 0.000000 
-0.128684 -0.030631 -0.582075 95 84 68 0.914080 0.371566 -0.162472 0.000000 
-0.146712 -0.043390 -0.712254 61 56 44 -0.596822 -0.775715 0.205109 0.000000 
-0.144305 -0.039964 -0.689569 78 75 63 0.146631 0.948394 -0.281155 0.000000 
-0.128271 -0.028924 -0.568148 85 65 46 -0.486326 -0.859518 0.157211 0.000000 
-0.126187 -0.027926 -0.522266 106 97 81 -0.364682 -0.714645 0.596900 0.000000 
-0.127553 -0.030160 -0.565930 100 92 78 0.988811 0.111168 0.099466 0.000000 
-0.135467 -0.033944 -0.613291 97 84 68 -0.461339 -0.837244 0.293579 0.000000 
-0.128820 -0.028405 -0.564274 77 62 42 -0.452594 -0.883907 0.117760 0.000000 
-0.132279 -0.035246 -0.594742 109 94 72 -0.611196 0.760496 0.219284 0.000000 
-0.140470 -0.036114 -0.648307 109 100 86 -0.718546 0.682544 0.133509 0.000000 
-0.135059 -0.035623 -0.642622 65 62 52 -0.991300 0.095339 0.090745 0.000000 
-0.137463 -0.037444 -0.646870 83 74 66 -0.323098 0.939801 -0.111275 0.000000 
-0.142425 -0.039039 -0.666881 97 98 96 0.053346 0.938113 -0.342196 0.000000 
-0.135402 -0.035225 -0.608136 112 98 75 0.464428 0.861656 -0.204587 0.000000 
-0.153410 -0.050070 -0.753446 94 90 81 -0.581406 0.813416 0.017953 0.000000 
-0.127917 -0.029331 -0.576174 84 77 62 -0.618649 -0.750210 -0.233364 0.000000 
-0.135906 -0.030488 -0.581526 85 76 60 -0.027207 -0.928935 -0.369242 0.000000 
-0.127878 -0.030308 -0.571902 99 90 73 -0.969209 0.198977 -0.145060 0.000000 
-0.127587 -0.031187 -0.560850 105 94 72 0.874539 -0.480927 0.062368 0.000000 
-0.156505 -0.051249 -0.768333 91 86 77 0.915594 -0.305198 -0.261805 0.000000 
-0.128899 -0.028994 -0.574602 95 89 80 0.497548 0.834349 -0.237292 0.000000 
-0.141155 -0.037146 -0.650685 86 74 53 -0.048722 0.991427 0.121237 0.000000 
-0.138689 -0.039310 -0.662659 77 77 70 -0.992396 0.120862 0.023285 0.000000 
-0.134266 -0.035648 -0.626153 78 75 67 -0.206995 0.977545 -0.039485 0.000000 
-0.126836 -0.029024 -0.523983 110 99 81 -0.998294 0.057254 0.011451 0.000000 
-0.135261 -0.036316 -0.644183 83 78 67 0.985147 -0.140051 -0.099353 0.000000 
-0.134534 -0.031621 -0.602907 120 108 92 0.506151 -0.859475 0.071506 0.000000 
-0.141893 -0.042406 -0.683991 98 97 88 0.624851 -0.766383 0.149061 0.000000 
-0.127696 -0.032002 -0.583773 93 77 56 0.984311 0.040867 -0.171641 0.000000 
-0.126431 -0.027500 -0.543986 103 90 78 -0.981458 -0.083297 0.172630 0.000000 
-0.138806 -0.035567 -0.640940 94 80 64 0.806211 -0.421538 -0.415126 0.000000 
-0.129099 -0.031623 -0.594772 91 85 74 0.976318 0.182826 -0.115666 0.000000 
-0.129297 -0.032483 -0.558399 93 89 81 0.177296 -0.979406 0.096596 0.000000 
-0.127182 -0.028174 -0.552252 96 90 78 0.981928 0.172289 -0.078313 0.000000 
-0.127093 -0.030158 -0.562493 81 75 61 0.938638 -0.333236 -0.088952 0.000000 
-0.127915 -0.029879 -0.551720 75 62 46 -0.598498 0.799412 -0.052351 0.000000 
-0.135289 -0.033358 -0.633845 73 68 50 -0.013748 0.948594 -0.316198 0.000000 
-0.129660 -0.032655 -0.596037 79 73 62 0.894688 -0.446689 -0.001310 0.000000 
-0.146972 -0.045148 -0.710377 81 81 76 -0.240710 0.796673 -0.554410 0.000000 
-0.130764 -0.028821 -0.562724 111 92 70 0.860542 -0.434079 -0.266540 0.000000 
-0.144486 -0.042122 -0.700388 64 61 51 0.715251 0.694940 -0.073991 0.000000 
-0.130516 -0.028920 -0.573652 98 81 63 -0.412892 0.908361 -0.066333 0.000000 
-0.131957 -0.032216 -0.614133 78 72 59 -0.682967 -0.721486 0.114075 0.000000 
-0.130601 -0.034281 -0.611227 80 72 59 -0.905756 0.419806 -0.058044 0.000000 
-0.132002 -0.032288 -0.614745 78 71 59 0.684362 0.727224 -0.052863 0.000000 
-0.134292 -0.034890 -0.636514 65 62 53 -0.996351 -0.072798 0.044548 0.000000 
-0.130474 -0.030941 -0.599540 92 87 81 -0.864423 -0.416203 0.282043 0.000000 
-0.143284 -0.042325 -0.694070 66 65 53 0.997206 -0.052825 -0.052825 0.000000 
-0.133546 -0.034717 -0.629679 69 63 50 -0.957057 0.016013 0.289457 0.000000 
-0.146880 -0.045891 -0.719023 66 64 54 -0.671198 -0.720124 0.175826 0.000000 
-0.128248 -0.031886 -0.557977 93 82 65 -0.746996 0.659628 0.083000 0.000000 
-0.132932 -0.031258 -0.610978 83 73 56 -0.215168 -0.951339 0.220581 0.000000 
-0.127132 -0.029477 -0.552833 97 90 78 0.887761 -0.407810 -0.213475 0.000000 
-0.128884 -0.032310 -0.580569 88 78 62 0.918922 -0.385704 0.082554 0.000000 
-0.131088 -0.034490 -0.590034 83 79 73 -0.947871 0.318455 0.011240 0.000000 
-0.155877 -0.052470 -0.766951 86 80 66 0.915594 -0.305198 -0.261805 0.000000 
-0.128688 -0.033256 -0.569333 86 76 55 0.437047 -0.894906 -0.090184 0.000000 
-0.133463 -0.031149 -0.599580 104 85 66 -0.451755 0.885100 -0.111877 0.000000 
-0.129497 -0.031369 -0.552001 79 66 52 0.456645 -0.887077 0.067600 0.000000 
-0.130136 -0.033211 -0.595928 82 69 52 0.766618 -0.630198 -0.123074 0.000000 
-0.132640 -0.032297 -0.617632 82 75 63 0.809362 0.532843 -0.247003 0.000000 
-0.129533 -0.031546 -0.553893 88 77 55 -0.061869 -0.993275 0.097865 0.000000 
-0.148509 -0.047752 -0.732224 71 66 56 -0.972209 0.050139 0.228683 0.000000 
-0.132361 -0.030236 -0.580998 101 92 74 0.510995 -0.841726 -0.174304 0.000000 
-0.142980 -0.040358 -0.689211 59 56 45 -0.634511 -0.714829 0.293963 0.000000 
-0.128295 -0.030579 -0.547674 119 105 85 0.770864 -0.616993 -0.158397 0.000000 
-0.135943 -0.034366 -0.639694 75 68 55 -0.240769 -0.959128 0.148671 0.000000 
-0.147569 -0.046559 -0.723058 75 71 65 -0.887877 -0.412386 0.203992 0.000000 
-0.133254 -0.031761 -0.613158 103 93 78 0.249451 0.966776 -0.055847 0.000000 
-0.126829 -0.029132 -0.525547 119 118 115 0.947818 -0.238659 0.211384 0.000000 
-0.133439 -0.035141 -0.629806 70 68 59 -0.850614 0.497305 0.170717 0.000000 
-0.145781 -0.042678 -0.707256 71 70 63 0.778245 0.605973 -0.164716 0.000000 
-0.134302 -0.035673 -0.632620 74 72 65 0.786073 -0.618120 0.004130 0.000000 
-0.139599 -0.035997 -0.648607 94 84 68 0.518415 -0.757180 -0.397397 0.000000 
-0.133699 -0.031951 -0.632895 61 59 42 -0.982321 -0.185278 0.026801 0.000000 
-0.129746 -0.030354 -0.589502 94 87 80 0.911362 0.373929 -0.172036 0.000000 
-0.127344 -0.029695 -0.545352 103 87 69 0.484899 -0.869426 -0.094718 0.000000 
-0.130840 -0.029234 -0.581365 96 78 63 -0.232137 -0.972595 0.013095 0.000000 
-0.126440 -0.028646 -0.530036 102 90 72 0.962807 -0.256324 -0.085441 0.000000 
-0.129719 -0.032564 -0.599299 79 69 54 0.986380 -0.158794 0.042886 0.000000 
-0.131774 -0.034012 -0.607190 85 59 34 -0.744452 0.654939 0.129794 0.000000 
-0.130350 -0.033940 -0.580441 103 91 69 0.543587 -0.822119 0.169216 0.000000 
-0.127968 -0.027957 -0.557131 93 85 69 0.559790 0.810263 -0.173520 0.000000 
-0.126493 -0.028319 -0.541271 102 93 82 0.950645 -0.309367 -0.023797 0.000000 
-0.131721 -0.036147 -0.587588 95 72 44 -0.285536 -0.957237 0.046541 0.000000 
-0.133634 -0.034519 -0.629646 66 60 48 0.877504 0.452577 -0.158620 0.000000 
-0.152286 -0.049848 -0.749321 88 84 74 -0.744843 0.667169 -0.009709 0.000000 
-0.126514 -0.027892 -0.525281 109 103 93 0.880581 0.262524 0.394536 0.000000 
-0.135406 -0.032381 -0.602170 91 74 54 0.883592 -0.466829 0.036534 0.000000 
-0.131832 -0.034602 -0.603918 87 84 75 0.798847 -0.601533 0.001370 0.000000 
-0.141947 -0.040713 -0.686234 57 54 42 0.784038 0.575996 -0.231330 0.000000 
-0.129523 -0.028628 -0.548231 90 71 44 0.877468 -0.266401 -0.398849 0.000000 
-0.132449 -0.034978 -0.591973 102 85 66 -0.014566 -0.989391 0.144543 0.000000 
-0.127173 -0.029660 -0.538766 100 88 70 -0.618608 0.785423 0.020852 0.000000 
-0.127634 -0.029954 -0.565937 89 82 74 -0.959318 -0.278915 0.043776 0.000000 
-0.134539 -0.034844 -0.637487 65 61 49 -0.909844 -0.346815 0.227824 0.000000 
-0.129200 -0.029973 -0.536636 121 112 106 -0.406713 -0.913481 0.011695 0.000000 
-0.125940 -0.028787 -0.526402 119 109 92 0.626010 -0.764788 -0.152354 0.000000 
-0.127633 -0.030148 -0.549346 99 92 79 0.663018 -0.639871 0.388552 0.000000 
-0.141489 -0.038109 -0.672800 82 74 57 0.602764 0.774544 -0.191719 0.000000 
-0.140042 -0.040277 -0.672942 73 72 64 0.934156 -0.346132 -0.086867 0.000000 
-0.134408 -0.035461 -0.628003 73 65 56 -0.587006 0.804416 -0.091312 0.000000 
-0.136779 -0.037010 -0.655097 77 67 59 -0.920601 -0.369625 0.125977 0.000000 
-0.152001 -0.045522 -0.719608 102 105 105 0.076474 -0.991883 0.101585 0.000000 
-0.128929 -0.030144 -0.539762 113 100 83 -0.485314 -0.873015 0.048119 0.000000 
-0.153895 -0.047814 -0.749080 93 86 74 -0.565803 -0.810637 0.150781 0.000000 
-0.140359 -0.035909 -0.651796 104 95 77 -0.667871 0.743797 -0.026715 0.000000 
-0.126384 -0.028088 -0.537597 106 99 89 0.898045 -0.431779 0.084149 0.000000 
-0.129055 -0.029702 -0.539266 102 84 68 -0.784508 -0.606548 0.129021 0.000000 
-0.129926 -0.034962 -0.580646 109 104 96 -0.636557 0.770863 0.023783 0.000000 
-0.128750 -0.029787 -0.532817 101 79 55 0.117990 0.992236 -0.039330 0.000000 
-0.145404 -0.044025 -0.709215 70 68 64 -0.871082 -0.437782 0.222626 0.000000 
-0.127155 -0.029371 -0.558577 92 87 73 -0.924202 -0.339015 0.175838 0.000000 
-0.153179 -0.047220 -0.735924 96 91 80 -0.345106 0.927213 -0.145527 0.000000 
-0.145949 -0.045562 -0.714246 66 66 57 0.994169 -0.081636 -0.070453 0.000000 
-0.132492 -0.032723 -0.620161 58 51 40 0.800432 0.569568 -0.186818 0.000000 
-0.130294 -0.029370 -0.582276 109 102 88 -0.255337 -0.966370 0.030543 0.000000 
-0.131283 -0.029703 -0.585675 118 110 97 0.099885 -0.977887 0.183739 0.000000 
-0.125645 -0.027116 -0.528769 110 102 87 -0.039950 0.989611 0.138112 0.000000 
-0.128155 -0.029727 -0.547480 81 71 64 -0.678759 0.720899 0.139966 0.000000 
-0.128631 -0.031188 -0.573664 87 78 62 -0.948641 0.312809 -0.047241 0.000000 
-0.134232 -0.035822 -0.635948 82 78 67 0.847682 -0.522856 -0.089755 0.000000 
-0.145074 -0.043307 -0.696715 90 90 84 0.705475 0.627629 -0.329222 0.000000 
-0.143216 -0.037214 -0.659950 97 83 64 0.477670 -0.877770 0.036744 0.000000 
-0.140756 -0.037543 -0.650361 92 79 60 0.602146 0.797739 0.032133 0.000000 
-0.125936 -0.027924 -0.520551 96 87 64 0.427687 -0.724921 0.539975 0.000000 
-0.130683 -0.029735 -0.585447 111 104 91 0.043709 0.981678 -0.185467 0.000000 
-0.136644 -0.034502 -0.644052 80 74 62 -0.243848 -0.931697 0.269220 0.000000 
-0.131816 -0.032345 -0.613669 76 70 57 0.796622 0.570326 -0.200302 0.000000 
-0.127397 -0.030185 -0.561135 95 89 75 -0.983237 0.180357 0.026763 0.000000 
-0.125158 -0.027506 -0.541670 114 100 83 0.962404 -0.269868 -0.030807 0.000000 
-0.141667 -0.041525 -0.682661 80 78 70 0.597499 -0.801726 -0.015179 0.000000 
-0.136759 -0.037744 -0.651051 80 67 55 -0.870533 0.470754 0.143399 0.000000 
-0.126491 -0.029254 -0.529429 111 107 99 -0.634284 0.664094 -0.395807 0.000000 
-0.144397 -0.042697 -0.701429 58 55 45 0.813948 0.550210 -0.186435 0.000000 
-0.129248 -0.032773 -0.560118 87 85 78 0.347839 -0.898461 0.267910 0.000000 
-0.130657 -0.031732 -0.601894 84 78 67 -0.783652 -0.616856 0.073333 0.000000 
-0.126547 -0.029100 -0.527847 119 104 84 -0.190888 0.868614 0.457243 0.000000 
-0.131715 -0.033908 -0.610738 76 72 62 0.754452 -0.648975 0.098152 0.000000 
-0.135861 -0.033641 -0.623528 86 78 64 -0.820914 0.556576 -0.127763 0.000000 
-0.135707 -0.036133 -0.633567 78 68 57 -0.162636 0.986195 0.031143 0.000000 
-0.130180 -0.032125 -0.558329 100 90 76 0.882204 0.457386 -0.111869 0.000000 
-0.132984 -0.033324 -0.624733 55 48 37 0.746076 0.642327 -0.175458 0.000000 
-0.129451 -0.030103 -0.585831 86 67 53 0.585071 0.808900 -0.058082 0.000000 
-0.139044 -0.038634 -0.654102 92 91 84 0.261256 -0.963772 0.053751 0.000000 
-0.135601 -0.033611 -0.632826 90 83 70 -0.192961 0.977096 -0.089721 0.000000 
-0.134355 -0.032852 -0.624585 92 85 72 0.023291 -0.992660 0.118676 0.000000 
-0.138693 -0.039867 -0.663464 79 74 58 -0.979283 0.201926 0.015174 0.000000 
-0.135854 -0.037428 -0.646084 78 76 66 0.438711 -0.884661 0.157820 0.000000 
-0.126640 -0.028722 -0.536650 109 92 72 -0.886710 0.457790 -0.064613 0.000000 
-0.146744 -0.042615 -0.708862 71 71 65 -0.453190 -0.869233 0.197620 0.000000 
-0.129368 -0.029355 -0.582598 108 103 97 0.498295 0.867007 -0.001336 0.000000 
-0.129237 -0.029345 -0.538365 94 82 67 -0.871299 -0.481545 0.094614 0.000000 
-0.144924 -0.044465 -0.703589 84 83 76 -0.912552 0.022321 0.408351 0.000000 
-0.132250 -0.034509 -0.604720 73 66 57 0.799385 -0.593373 -0.094301 0.000000 
-0.128167 -0.028333 -0.539075 110 92 72 0.350297 -0.731551 -0.584915 0.000000 
-0.133168 -0.031528 -0.603180 97 75 58 -0.264746 0.960503 -0.085691 0.000000 
-0.141475 -0.040743 -0.683240 58 55 42 0.971749 0.189269 -0.140999 0.000000 
-0.129478 -0.031274 -0.552142 75 61 45 -0.555211 0.830730 0.040354 0.000000 
-0.133803 -0.034999 -0.633172 69 65 53 0.989418 -0.063498 -0.130460 0.000000 
-0.129049 -0.029283 -0.541215 100 81 64 0.986909 -0.122031 -0.105444 0.000000 
-0.153530 -0.047832 -0.741708 82 77 70 0.212038 0.952144 -0.220141 0.000000 
-0.130553 -0.035361 -0.586894 115 110 99 -0.795386 0.595437 0.113207 0.000000 
-0.136948 -0.035698 -0.615640 90 80 66 0.059988 0.992634 0.105262 0.000000 
-0.141935 -0.040437 -0.684476 62 56 39 -0.821567 -0.560752 0.102877 0.000000 
-0.142740 -0.042071 -0.693083 75 68 59 -0.965914 -0.201503 0.162502 0.000000 
-0.129243 -0.028392 -0.571723 105 99 88 -0.320705 -0.947139 0.008735 0.000000 
-0.128638 -0.032783 -0.578469 110 98 79 0.891024 -0.452903 -0.030910 0.000000 
-0.147076 -0.045265 -0.720066 63 60 51 0.737502 0.670589 -0.080005 0.000000 
-0.127246 -0.030766 -0.568465 78 71 59 0.901220 -0.425156 -0.083930 0.000000 
-0.135231 -0.034657 -0.640317 54 47 38 0.591088 0.802088 -0.085267 0.000000 
-0.135263 -0.033244 -0.624452 87 79 65 -0.430931 0.894358 0.120095 0.000000 
-0.130821 -0.030310 -0.591933 102 94 82 -0.150013 -0.987298 -0.052330 0.000000 
-0.134632 -0.034043 -0.636258 58 50 37 -0.802088 -0.591088 0.085267 0.000000 
-0.127119 -0.029736 -0.548454 97 88 69 -0.726271 0.687088 -0.020990 0.000000 
-0.134421 -0.035709 -0.629727 74 71 64 0.611707 -0.789710 -0.046620 0.000000 
-0.142442 -0.041879 -0.689811 67 64 52 -0.996311 0.037944 0.076973 0.000000 
-0.145674 -0.043530 -0.708166 61 57 47 -0.783720 -0.582766 0.214866 0.000000 
-0.139054 -0.035748 -0.654867 83 72 56 -0.090396 -0.963804 0.250818 0.000000 
-0.132059 -0.030484 -0.592488 90 81 67 0.027563 -0.999432 -0.019397 0.000000 
-0.132114 -0.030512 -0.575776 94 84 63 -0.748683 -0.650054 0.130011 0.000000 
-0.139325 -0.038203 -0.655838 85 73 57 0.405868 0.660985 0.631166 0.000000 
-0.131225 -0.031206 -0.578822 90 80 61 0.510791 0.474187 0.717104 0.000000 
-0.128157 -0.030814 -0.557971 84 67 49 0.861627 -0.507237 -0.017584 0.000000 
-0.126627 -0.027438 -0.535682 104 99 89 -0.967443 -0.008392 -0.252950 0.000000 
-0.129649 -0.034500 -0.570180 100 96 88 -0.317365 0.923633 -0.214898 0.000000 
-0.127467 -0.029889 -0.538803 116 98 77 0.494660 -0.868705 -0.025749 0.000000 
-0.131012 -0.029086 -0.577824 103 96 81 0.028002 0.991274 -0.128810 0.000000 
-0.129516 -0.033904 -0.576738 88 79 71 -0.860200 0.506082 0.062737 0.000000 
-0.133375 -0.030985 -0.589788 100 89 70 -0.624523 0.751597 0.212307 0.000000 
-0.129539 -0.031635 -0.596441 75 67 60 0.932739 0.223688 -0.282776 0.000000 
-0.127523 -0.028839 -0.558132 92 86 73 -0.889719 -0.453716 0.050413 0.000000 
-0.148168 -0.044786 -0.717281 68 63 53 0.367098 0.925197 -0.096177 0.000000 
-0.131243 -0.033740 -0.602127 104 89 64 0.739835 -0.666873 0.089014 0.000000 
-0.134004 -0.030461 -0.579880 110 102 88 -0.534701 0.844909 0.014966 0.000000 
-0.129617 -0.030862 -0.589308 69 59 48 0.876535 0.475196 -0.076645 0.000000 
-0.132688 -0.035514 -0.606746 103 100 89 -0.612027 0.784388 0.100787 0.000000 
-0.129505 -0.033232 -0.567439 98 85 68 -0.940303 0.329304 -0.085963 0.000000 
-0.130772 -0.033075 -0.610456 74 67 53 0.960057 -0.267180 -0.083094 0.000000 
-0.130868 -0.033550 -0.603214 87 83 71 0.785794 -0.618487 -0.001371 0.000000 
-0.130827 -0.033782 -0.583788 96 85 62 -0.003464 0.980307 -0.197447 0.000000 
-0.128061 -0.030150 -0.547157 120 106 85 -0.718256 0.682268 0.136454 0.000000 
-0.127178 -0.028778 -0.547614 95 89 75 0.980699 -0.194740 -0.017492 0.000000 
-0.128458 -0.031752 -0.559864 86 79 65 0.673532 -0.692550 0.258319 0.000000 
-0.142187 -0.038578 -0.678020 73 69 55 0.364000 0.888279 -0.280115 0.000000 
-0.138714 -0.038008 -0.664785 56 46 34 -0.855125 -0.442095 0.270764 0.000000 
-0.138380 -0.036505 -0.661561 108 96 78 -0.768614 -0.604685 0.208779 0.000000 
-0.126298 -0.028115 -0.541055 111 106 93 0.937073 -0.338941 -0.083738 0.000000 
-0.149921 -0.048279 -0.738200 64 56 45 -0.826160 -0.534220 0.179077 0.000000 
-0.129774 -0.035488 -0.583023 97 87 75 -0.663896 0.725226 0.182456 0.000000 
-0.129605 -0.033952 -0.571684 100 87 69 0.714450 -0.697200 0.058939 0.000000 
-0.126527 -0.027712 -0.544735 89 84 72 -0.974432 -0.087909 0.206773 0.000000 
-0.130064 -0.030047 -0.588985 99 93 83 0.705933 0.703010 -0.086232 0.000000 
-0.150825 -0.048951 -0.747155 75 71 63 0.190136 0.977665 -0.089548 0.000000 
-0.133062 -0.034953 -0.618299 81 69 53 -0.639782 0.710335 0.293434 0.000000 
-0.128162 -0.030504 -0.569779 89 81 67 -0.897864 0.336885 0.283458 0.000000 
-0.139874 -0.035724 -0.654723 98 88 70 0.152884 -0.978212 0.140455 0.000000 
-0.144941 -0.042524 -0.705552 77 71 63 0.773139 0.581814 -0.252485 0.000000 
-0.128529 -0.030763 -0.581597 85 75 66 0.871454 0.433477 -0.229488 0.000000 
-0.126782 -0.029478 -0.529901 115 109 101 0.369854 -0.929082 -0.003813 0.000000 
-0.127763 -0.028163 -0.557305 97 90 76 -0.709525 -0.697773 0.098423 0.000000 
-0.130004 -0.029050 -0.584458 117 115 109 -0.343261 -0.926944 0.151480 0.000000 
-0.131723 -0.029243 -0.570203 104 95 79 -0.062639 -0.954919 0.290183 0.000000 
-0.153825 -0.049852 -0.758476 98 94 86 0.968749 -0.206581 0.137293 0.000000 
-0.152085 -0.048625 -0.745007 75 70 61 -0.174748 -0.977844 -0.115259 0.000000 
-0.147171 -0.044579 -0.706267 95 96 94 0.545965 0.166033 0.821191 0.000000 
-0.128777 -0.032351 -0.585031 82 74 61 0.955077 -0.296234 0.008604 0.000000 
-0.129632 -0.030921 -0.556802 85 70 50 0.271527 0.751067 -0.601806 0.000000 
-0.131685 -0.033502 -0.615502 76 71 60 0.991741 -0.085989 -0.095161 0.000000 
-0.130799 -0.031662 -0.603639 80 75 63 -0.847485 -0.529505 0.037328 0.000000 
-0.144480 -0.040709 -0.692659 68 62 46 -0.248887 -0.967068 0.053244 0.000000 
-0.151180 -0.048885 -0.746585 73 68 59 0.123355 0.988013 -0.092810 0.000000 
-0.149582 -0.048623 -0.733784 76 74 68 0.901420 0.241844 -0.359102 0.000000 
-0.151191 -0.049224 -0.748289 83 78 70 -0.804468 -0.356653 0.475004 0.000000 
-0.128275 -0.030873 -0.570358 97 87 70 -0.920814 0.376261 0.102617 0.000000 
-0.133908 -0.035714 -0.632885 75 71 59 0.981329 -0.125874 -0.145427 0.000000 
-0.139332 -0.039407 -0.662991 90 90 86 0.992280 -0.032442 0.119700 0.000000 
-0.128487 -0.031039 -0.581298 82 75 65 0.940412 0.301642 -0.156963 0.000000 
-0.150955 -0.049564 -0.745988 90 87 79 0.150966 0.987619 -0.042639 0.000000 
-0.134428 -0.033067 -0.623463 72 63 50 -0.162407 0.959919 -0.228426 0.000000 
-0.145038 -0.043075 -0.696810 80 71 60 -0.711606 -0.593279 0.376346 0.000000 
-0.142762 -0.043237 -0.690601 92 91 85 -0.981315 0.191618 0.017420 0.000000 
-0.134690 -0.035705 -0.619803 81 78 69 0.005482 -0.992280 0.123898 0.000000 
-0.138294 -0.035781 -0.632113 84 74 59 -0.193155 -0.952269 0.236379 0.000000 
-0.126566 -0.028622 -0.537255 108 99 88 0.909825 -0.398656 0.115291 0.000000 
-0.135257 -0.034912 -0.642557 65 58 42 -0.931472 -0.255837 0.258664 0.000000 
-0.138735 -0.035667 -0.646761 86 73 57 0.652763 -0.747927 -0.120441 0.000000 
-0.145968 -0.044612 -0.713958 56 55 46 -0.893891 -0.396472 0.209209 0.000000 
-0.154210 -0.047713 -0.751357 105 107 102 0.406591 0.883181 -0.233827 0.000000 
-0.145134 -0.043124 -0.708349 83 75 66 -0.804939 -0.557500 0.203144 0.000000 
-0.125442 -0.027998 -0.530514 81 71 55 -0.398444 0.914395 -0.071585 0.000000 
-0.145839 -0.045522 -0.713097 70 70 62 0.956678 -0.288879 -0.036266 0.000000 
-0.126995 -0.028451 -0.551783 85 79 68 -0.986761 -0.146665 0.069226 0.000000 
-0.146455 -0.042503 -0.706708 72 66 51 -0.617751 -0.746646 0.246786 0.000000 
-0.126701 -0.029206 -0.538315 114 106 94 -0.781135 0.612799 -0.119607 0.000000 
-0.134176 -0.034079 -0.630995 69 63 50 0.768047 0.640271 -0.012500 0.000000 
-0.127082 -0.029693 -0.551851 98 85 67 0.889746 -0.454999 -0.036454 0.000000 
-0.135774 -0.036387 -0.644943 70 66 60 0.982668 -0.146975 -0.112964 0.000000 
-0.128442 -0.031902 -0.589993 78 59 40 0.955440 -0.290565 0.052023 0.000000 
-0.130293 -0.030137 -0.586774 76 65 52 -0.416926 -0.907586 0.049602 0.000000 
-0.126451 -0.028344 -0.556659 101 92 76 0.806077 0.590937 0.032131 0.000000 
-0.134981 -0.034017 -0.638966 67 60 45 0.663279 0.724836 -0.186210 0.000000 
-0.127834 -0.031342 -0.555445 98 92 81 -0.760808 0.648304 -0.029532 0.000000 
-0.149141 -0.048300 -0.732934 78 77 70 -0.965512 -0.236582 0.108700 0.000000 
-0.140114 -0.040098 -0.673734 67 65 56 0.973103 -0.220209 -0.067662 0.000000 
-0.129739 -0.033352 -0.587792 91 83 69 0.926571 -0.370894 0.062480 0.000000 
-0.154392 -0.051567 -0.755495 110 106 97 -0.981749 0.189379 0.017428 0.000000 
-0.128448 -0.031309 -0.580895 82 65 45 0.984874 -0.151244 0.084554 0.000000 
-0.134315 -0.035328 -0.620530 75 66 54 -0.364710 0.927253 -0.084785 0.000000 
-0.126737 -0.027639 -0.531153 101 95 87 -0.944606 0.282155 0.167657 0.000000 
-0.148627 -0.048150 -0.732635 73 68 55 -0.983747 -0.007998 0.179382 0.000000 
-0.132860 -0.033286 -0.624266 70 67 58 0.800122 0.529747 -0.281379 0.000000 
-0.139117 -0.038135 -0.665727 56 53 44 0.866204 0.469132 -0.172064 0.000000 
-0.127865 -0.028238 -0.520839 133 122 112 0.830059 -0.509042 0.227769 0.000000 
-0.126414 -0.027762 -0.530505 105 101 93 -0.262413 -0.893983 -0.363227 0.000000 
-0.128228 -0.027232 -0.542375 114 107 98 -0.482953 0.875269 -0.025703 0.000000 
-0.139289 -0.039539 -0.669129 62 62 52 0.931529 -0.153185 -0.329830 0.000000 
-0.129428 -0.031782 -0.549717 86 69 53 -0.448776 0.881679 -0.145744 0.000000 
-0.130073 -0.030700 -0.563947 79 67 48 -0.649575 -0.759481 0.035226 0.000000 
-0.137403 -0.035030 -0.627715 83 73 59 0.159930 0.978174 0.132655 0.000000 
-0.140591 -0.038532 -0.674238 63 61 52 -0.796822 -0.595795 0.100513 0.000000 
-0.127536 -0.027402 -0.546490 73 65 50 0.304383 0.947409 0.098826 0.000000 
-0.145611 -0.044323 -0.709316 66 61 52 -0.886261 -0.378118 0.267522 0.000000 
-0.128213 -0.030399 -0.579097 74 64 50 -0.967006 -0.251889 0.038090 0.000000 
-0.127948 -0.028812 -0.561569 96 89 74 0.655928 0.754247 0.029496 0.000000 
-0.128387 -0.030991 -0.575486 87 78 62 -0.990484 0.096152 -0.098469 0.000000 
-0.126809 -0.028074 -0.528352 112 106 94 -0.867134 0.480458 0.131296 0.000000 
-0.134981 -0.034017 -0.638966 67 60 45 -0.663279 -0.724836 0.186210 0.000000 
-0.138682 -0.036393 -0.659346 77 69 53 0.569961 0.794258 -0.210471 0.000000 
-0.149306 -0.048569 -0.735379 70 67 57 -0.987890 -0.132422 0.080859 0.000000 
-0.135438 -0.033060 -0.619501 104 94 79 -0.548815 0.813341 0.193074 0.000000 
-0.133415 -0.034996 -0.629444 70 66 55 0.912310 -0.407685 -0.038511 0.000000 
-0.145916 -0.045320 -0.713274 69 68 62 0.955306 -0.287743 0.067779 0.000000 
-0.126514 -0.028517 -0.539360 104 97 86 -0.991397 0.104297 -0.079083 0.000000 
-0.152291 -0.049131 -0.751397 65 61 51 0.773523 0.632626 -0.038042 0.000000 
-0.128428 -0.031951 -0.561787 86 78 63 -0.826904 0.561853 -0.023468 0.000000 
-0.154113 -0.051453 -0.758240 82 77 65 0.974437 -0.177743 0.137404 0.000000 
-0.128785 -0.029075 -0.571469 90 81 65 -0.613004 -0.786087 -0.079330 0.000000 
-0.131122 -0.032706 -0.608434 77 70 57 0.967630 -0.251317 0.023068 0.000000 
-0.128806 -0.027383 -0.557615 93 89 78 -0.398987 -0.900241 0.174287 0.000000 
-0.127179 -0.029592 -0.532217 106 90 70 0.309560 -0.950879 -0.001233 0.000000 
-0.129892 -0.030126 -0.586070 75 65 52 -0.552421 -0.832127 0.048949 0.000000 
-0.128477 -0.030210 -0.580457 88 78 70 -0.850742 -0.488915 0.192875 0.000000 
-0.128309 -0.029457 -0.570482 78 67 53 -0.872258 -0.325378 0.365096 0.000000 
-0.151826 -0.049301 -0.752128 80 75 64 0.813636 0.573736 -0.093937 0.000000 
-0.135188 -0.033815 -0.635516 66 59 47 0.341768 0.916625 -0.207349 0.000000 
-0.135748 -0.036428 -0.644863 71 65 59 0.969564 -0.221217 -0.104920 0.000000 
-0.128014 -0.029688 -0.546154 97 84 61 0.486950 -0.861974 -0.140997 0.000000 
-0.127364 -0.029629 -0.533150 111 98 88 0.142597 -0.978343 0.150037 0.000000 
-0.127444 -0.029856 -0.549971 95 88 74 -0.864118 0.440382 -0.243648 0.000000 
-0.146651 -0.043521 -0.713008 61 58 46 0.620014 0.751200 -0.226453 0.000000 
-0.129421 -0.033437 -0.568534 99 91 73 -0.287432 -0.953339 -0.092343 0.000000 
-0.127608 -0.028687 -0.557896 88 81 68 0.900577 0.433611 -0.030686 0.000000 
-0.128967 -0.028062 -0.562302 97 88 69 0.354458 0.925452 -0.133784 0.000000 
-0.136225 -0.036302 -0.621438 104 103 97 0.192961 0.977096 -0.089721 0.000000 
-0.128066 -0.031454 -0.563223 91 77 62 -0.927973 0.372469 0.011520 0.000000 
-0.129280 -0.032309 -0.600182 90 72 51 -0.967485 -0.252440 0.015702 0.000000 
-0.128740 -0.031820 -0.586619 77 68 56 0.942541 -0.224940 -0.247020 0.000000 
-0.128763 -0.031882 -0.583352 84 63 41 -0.987455 0.097920 0.123874 0.000000 
-0.147599 -0.040924 -0.695363 104 102 91 -0.284261 0.958613 -0.015997 0.000000 
-0.129717 -0.031048 -0.553069 85 72 54 -0.819562 -0.512807 0.255629 0.000000 
-0.129727 -0.033121 -0.560626 103 102 97 -0.432751 -0.901233 -0.022498 0.000000 
-0.130118 -0.033266 -0.595608 86 65 42 -0.798850 0.583833 0.144838 0.000000 
-0.129949 -0.030945 -0.563957 78 66 47 -0.431780 -0.601825 0.671843 0.000000 
-0.134919 -0.035450 -0.640765 72 67 62 -0.973441 -0.195192 0.119634 0.000000 
-0.142320 -0.040506 -0.686785 55 52 40 0.685925 0.689064 -0.233874 0.000000 
-0.127213 -0.028796 -0.553905 79 65 46 0.993983 0.072840 -0.081805 0.000000 
-0.127727 -0.028514 -0.564234 92 85 75 0.549418 0.793604 -0.261404 0.000000 
-0.149090 -0.048510 -0.731168 93 89 78 0.975029 -0.221544 0.015401 0.000000 
-0.130046 -0.030835 -0.591219 90 81 67 0.508938 0.860120 -0.034295 0.000000 
-0.127413 -0.027795 -0.531797 90 73 50 -0.665730 0.703682 0.248265 0.000000 
-0.153939 -0.049864 -0.756790 94 91 82 -0.965897 0.257654 -0.025643 0.000000 
-0.128316 -0.033074 -0.568089 104 95 79 0.918878 -0.394539 0.001285 0.000000 
-0.146069 -0.043901 -0.711540 57 52 42 0.891588 0.398057 -0.215920 0.000000 
-0.131067 -0.034661 -0.591984 90 85 76 -0.554045 0.831762 -0.034715 0.000000 
-0.129221 -0.032895 -0.563182 105 85 65 -0.628126 0.754059 -0.191970 0.000000 
-0.132902 -0.032369 -0.618740 82 75 62 0.536335 0.835753 -0.117732 0.000000 
-0.128185 -0.028894 -0.565943 74 64 51 -0.651358 -0.758770 -0.001377 0.000000 
-0.141068 -0.037504 -0.669110 83 78 62 -0.375276 -0.916566 0.138113 0.000000 
-0.132387 -0.031215 -0.587870 98 77 59 0.545431 -0.837967 -0.017771 0.000000 
-0.124734 -0.030444 -0.521071 112 109 101 0.698750 -0.528648 -0.481954 0.000000 
-0.142465 -0.037810 -0.674082 95 88 72 -0.240327 -0.940471 0.240327 0.000000 
-0.129828 -0.033643 -0.573336 82 72 55 -0.989813 -0.021395 0.140758 0.000000 
-0.146445 -0.042216 -0.693125 109 111 109 -0.241457 -0.930528 0.275346 0.000000 
-0.148395 -0.047361 -0.731146 74 72 65 0.998304 -0.043221 -0.039004 0.000000 
-0.127841 -0.029378 -0.530984 106 93 74 -0.998259 -0.028461 0.051652 0.000000 
-0.128236 -0.029272 -0.532268 109 95 79 -0.009060 -0.917628 0.397337 0.000000 
-0.142218 -0.041304 -0.689232 70 65 60 0.938544 0.246838 -0.241260 0.000000 
-0.132256 -0.030576 -0.607346 109 109 104 0.247201 0.967895 -0.045505 0.000000 
-0.131129 -0.033681 -0.596941 88 69 48 0.721878 -0.646057 -0.247997 0.000000 
-0.131384 -0.032578 -0.599747 77 69 61 -0.939691 0.331734 0.083264 0.000000 
-0.128221 -0.029865 -0.543905 109 97 76 0.408054 -0.890698 0.200371 0.000000 
-0.132092 -0.034561 -0.598522 83 78 70 -0.895757 0.437527 0.078672 0.000000 
-0.130611 -0.033587 -0.592795 83 72 63 0.853906 -0.520412 0.004034 0.000000 
-0.129356 -0.033711 -0.571530 101 82 61 0.798018 -0.581606 0.157800 0.000000 
-0.128925 -0.030142 -0.544885 91 81 64 0.662679 -0.732435 0.156192 0.000000 
-0.147511 -0.046271 -0.724705 66 64 55 0.896132 0.403911 -0.183859 0.000000 
-0.132996 -0.029100 -0.571090 108 102 85 -0.983026 -0.031485 0.180746 0.000000 
-0.129295 -0.031073 -0.549482 119 105 85 -0.360261 -0.922212 0.140488 0.000000 
-0.132035 -0.030163 -0.591980 114 106 92 0.072666 0.997311 -0.009478 0.000000 
-0.152787 -0.048696 -0.748507 70 64 53 0.200087 0.892357 -0.404555 0.000000 
-0.128764 -0.031539 -0.554223 87 76 61 0.499535 -0.849357 0.170464 0.000000 
-0.136983 -0.037405 -0.655409 68 63 52 -0.955395 -0.233838 0.180389 0.000000 
-0.128275 -0.030873 -0.570358 97 87 70 -0.920814 0.376261 0.102617 0.000000 
-0.126718 -0.029061 -0.537790 100 86 67 -0.827627 0.561264 0.004077 0.000000 
-0.136234 -0.034770 -0.643460 62 55 43 0.490011 0.814583 -0.310393 0.000000 
-0.139098 -0.039537 -0.663270 90 91 85 0.990424 -0.138019 -0.003312 0.000000 
-0.132267 -0.032833 -0.619841 60 52 41 0.888534 0.436397 -0.141650 0.000000 
-0.128185 -0.031234 -0.576495 99 90 72 0.965562 -0.259350 -0.020699 0.000000 
-0.132079 -0.034026 -0.612173 74 63 48 0.699970 -0.713941 -0.018163 0.000000 
-0.127572 -0.027724 -0.537423 87 72 55 -0.920364 -0.152694 0.360021 0.000000 
-0.134274 -0.035269 -0.635531 67 64 58 0.985926 -0.157888 -0.054969 0.000000 
-0.151166 -0.049849 -0.744067 110 110 104 -0.254123 0.967111 0.010839 0.000000 
-0.126983 -0.028682 -0.534944 106 97 87 -0.992515 -0.098910 0.071625 0.000000 
-0.127572 -0.029693 -0.535413 115 97 78 0.310005 -0.945845 0.096299 0.000000 
-0.126963 -0.027026 -0.542967 104 98 85 0.039630 -0.870489 0.490590 0.000000 
-0.129021 -0.028207 -0.563313 93 84 67 -0.298350 -0.948090 0.110058 0.000000 
-0.132320 -0.035581 -0.598472 112 110 103 -0.753081 0.656641 -0.041129 0.000000 
-0.127434 -0.029116 -0.530482 105 95 83 -0.961976 0.240819 -0.128871 0.000000 
-0.127865 -0.028238 -0.520839 133 122 112 -0.830059 0.509042 -0.227769 0.000000 
-0.129408 -0.033999 -0.574155 98 92 84 -0.789007 0.603877 -0.113135 0.000000 
-0.125206 -0.028546 -0.523349 85 72 54 -0.080981 0.957635 -0.276364 0.000000 
-0.130453 -0.033885 -0.590871 87 69 47 0.950879 -0.309560 0.001233 0.000000 
-0.153064 -0.048198 -0.748559 82 77 68 0.337857 0.919484 -0.201003 0.000000 
-0.141813 -0.038501 -0.664136 101 88 67 0.053146 -0.983793 -0.171249 0.000000 
-0.127976 -0.029435 -0.572661 97 91 78 -0.805692 -0.588169 0.070122 0.000000 
-0.133189 -0.033522 -0.626327 63 56 40 0.786933 0.584447 -0.197884 0.000000 
-0.127584 -0.027294 -0.542233 94 79 64 -0.259340 0.961986 -0.085595 0.000000 
-0.132786 -0.032163 -0.620500 88 88 82 -0.442029 -0.861274 0.250635 0.000000 
-0.136492 -0.037207 -0.653174 65 55 42 -0.961777 -0.273218 0.018378 0.000000 
-0.133385 -0.031478 -0.604500 108 99 84 0.357909 -0.924482 0.131279 0.000000 
-0.133678 -0.034633 -0.611937 81 72 59 -0.304825 0.950488 0.060451 0.000000 
-0.143247 -0.043389 -0.696664 80 78 70 -0.871270 -0.477701 0.112652 0.000000 
-0.136052 -0.034203 -0.625392 80 71 57 0.716594 -0.670362 0.192633 0.000000 
-0.131838 -0.033825 -0.600483 79 73 63 -0.900358 0.433406 -0.038913 0.000000 
-0.155299 -0.050963 -0.765290 96 89 75 -0.915594 0.305198 0.261805 0.000000 
-0.129946 -0.033430 -0.585606 82 75 67 -0.875882 0.473792 0.091384 0.000000 
-0.131794 -0.031370 -0.607539 96 88 74 0.676448 0.733896 -0.061756 0.000000 
-0.132174 -0.034972 -0.600278 94 90 82 0.901513 -0.429870 -0.049859 0.000000 
-0.132146 -0.030340 -0.593513 118 110 95 0.153233 -0.983345 0.097731 0.000000 
-0.127514 -0.028402 -0.555587 80 73 60 0.869021 0.494466 -0.017515 0.000000 
-0.136715 -0.034464 -0.634521 79 71 58 -0.807780 0.586315 -0.061045 0.000000 
-0.126005 -0.028753 -0.542688 102 90 79 0.898369 -0.430497 0.087207 0.000000 
-0.130543 -0.028086 -0.562788 89 76 53 0.582937 -0.778804 -0.231620 0.000000 
-0.137174 -0.035817 -0.654769 87 75 64 0.810811 0.572424 -0.122137 0.000000 
-0.136875 -0.036092 -0.651118 55 47 35 -0.884179 -0.432622 0.176253 0.000000 
-0.129247 -0.032336 -0.557376 83 72 50 -0.030140 0.992383 -0.119443 0.000000 
-0.152135 -0.050180 -0.750884 85 79 68 -0.747586 0.661821 0.055747 0.000000 
-0.128187 -0.032411 -0.557863 101 98 89 0.661331 -0.750063 -0.006932 0.000000 
-0.130637 -0.033704 -0.600448 101 88 67 -0.677459 0.725105 -0.123580 0.000000 
-0.140695 -0.036948 -0.666867 85 85 82 -0.385390 -0.838420 0.385390 0.000000 
-0.129433 -0.030587 -0.587470 77 68 55 0.892859 0.428629 -0.138130 0.000000 
-0.135026 -0.033766 -0.608441 96 84 61 -0.590645 0.553412 -0.587260 0.000000 
-0.129147 -0.033610 -0.571815 86 76 56 0.809989 -0.584600 -0.046486 0.000000 
-0.128904 -0.028788 -0.569798 93 86 72 -0.390772 -0.919696 0.038156 0.000000 
-0.137190 -0.036310 -0.652344 67 58 45 -0.854291 -0.488803 0.176801 0.000000 
-0.128383 -0.031945 -0.574793 93 82 65 -0.967352 0.205353 -0.148525 0.000000 
-0.128527 -0.027378 -0.549225 99 92 79 0.339429 -0.940631 0.001253 0.000000 
-0.133944 -0.032557 -0.620397 73 64 50 0.136685 0.969568 -0.203111 0.000000 
-0.133955 -0.031620 -0.590181 94 83 66 0.876747 -0.455094 -0.155575 0.000000 
-0.127870 -0.029267 -0.565677 89 82 68 0.773167 0.633858 -0.020896 0.000000 
-0.128974 -0.032210 -0.573603 84 79 70 -0.991749 0.071899 -0.106137 0.000000 
-0.127599 -0.029348 -0.549195 71 58 41 -0.781002 0.624527 -0.001373 0.000000 
-0.131016 -0.032835 -0.606773 74 69 61 -0.933103 0.223103 0.282036 0.000000 
-0.133584 -0.030966 -0.600821 128 118 104 0.499058 -0.857801 0.122956 0.000000 
-0.127727 -0.029800 -0.532924 116 100 82 -0.146745 0.987926 -0.049685 0.000000 
-0.128304 -0.031209 -0.559620 86 81 70 0.716501 -0.683455 0.139695 0.000000 
-0.128780 -0.032972 -0.570809 78 71 65 -0.967101 0.240830 0.081958 0.000000 
-0.146553 -0.042915 -0.709705 67 62 50 -0.498047 -0.848910 0.176918 0.000000 
-0.136228 -0.034319 -0.629670 75 65 52 0.773670 -0.549418 0.315555 0.000000 
-0.127540 -0.027792 -0.553747 83 69 52 -0.804531 -0.593324 -0.026401 0.000000 
-0.128104 -0.027498 -0.555420 89 85 74 0.526861 0.836779 -0.149056 0.000000 
-0.129650 -0.030101 -0.585669 80 71 59 0.538011 0.827137 -0.162447 0.000000 
-0.144211 -0.042978 -0.701122 62 57 48 0.857070 0.505085 -0.101589 0.000000 
-0.135059 -0.035813 -0.642688 69 58 49 -0.972930 0.228427 -0.035050 0.000000 
-0.140715 -0.040681 -0.681461 73 64 54 0.977483 0.071820 -0.198418 0.000000 
-0.134344 -0.035358 -0.635603 68 65 58 -0.930228 0.359012 0.076073 0.000000 
-0.144808 -0.041333 -0.688624 73 68 62 -0.264258 -0.916961 0.298915 0.000000 
-0.126700 -0.028585 -0.538492 106 98 87 -0.904937 0.346478 0.247067 0.000000 
-0.130485 -0.028548 -0.566798 98 80 56 0.079534 -0.977662 0.194554 0.000000 
-0.142812 -0.042732 -0.689711 97 90 76 0.978119 -0.187769 -0.089589 0.000000 
-0.126135 -0.028051 -0.524402 92 81 66 0.690778 0.702977 0.169263 0.000000 
-0.128584 -0.030499 -0.551189 75 60 46 0.766759 -0.613713 0.188246 0.000000 
-0.125954 -0.028440 -0.526862 112 100 83 0.578216 -0.638903 -0.507414 0.000000 
-0.133196 -0.033166 -0.624160 64 58 47 -0.470637 -0.840974 0.266951 0.000000 
-0.126943 -0.027996 -0.531639 111 101 89 0.911871 -0.403615 -0.074744 0.000000 
-0.130651 -0.032310 -0.608945 84 71 55 0.998444 0.045240 0.032615 0.000000 
-0.129493 -0.032039 -0.587089 85 76 62 -0.952810 0.284401 0.106159 0.000000 
-0.147679 -0.044994 -0.719411 65 62 52 0.372073 0.910938 -0.178196 0.000000 
-0.132273 -0.029915 -0.585161 99 91 74 -0.396429 0.886398 -0.239045 0.000000 
-0.130466 -0.033753 -0.578963 103 92 71 0.336618 -0.851628 0.401770 0.000000 
-0.132952 -0.034706 -0.626460 74 70 58 0.975752 -0.115894 -0.185679 0.000000 
-0.131964 -0.032262 -0.615348 76 73 65 0.705625 0.708419 -0.015370 0.000000 
-0.139176 -0.039653 -0.668054 67 66 57 -0.992314 0.032370 0.119435 0.000000 
-0.129962 -0.028867 -0.569761 91 72 50 -0.147701 0.987389 0.056987 0.000000 
-0.133294 -0.034437 -0.628313 71 68 61 0.930473 0.337727 -0.141983 0.000000 
-0.134950 -0.035464 -0.626018 73 63 50 -0.091895 0.938927 -0.331621 0.000000 
-0.140051 -0.040758 -0.672101 83 83 75 0.953176 -0.301984 -0.016156 0.000000 
-0.126934 -0.028097 -0.557328 81 65 41 -0.758215 -0.650101 -0.049789 0.000000 
-0.144924 -0.044465 -0.703589 84 83 76 0.912552 -0.022321 -0.408351 0.000000 
-0.127679 -0.030239 -0.563086 91 85 76 -0.931149 0.364584 0.006352 0.000000 
-0.132297 -0.031476 -0.612162 78 69 53 0.400261 0.885335 -0.236585 0.000000 
-0.128568 -0.032383 -0.563161 85 74 56 0.823744 -0.566921 0.006830 0.000000 
-0.126777 -0.027082 -0.534115 94 76 57 0.997162 -0.007386 0.074919 0.000000 
-0.149503 -0.047502 -0.735903 72 67 62 0.824310 0.544074 -0.156514 0.000000 
-0.132943 -0.035000 -0.607515 77 72 62 -0.684846 0.706296 0.179255 0.000000 
-0.148832 -0.045249 -0.712162 98 100 97 0.431982 0.771047 0.467844 0.000000 
-0.128859 -0.030351 -0.542544 118 106 88 0.996041 -0.047014 0.075441 0.000000 
-0.127550 -0.029493 -0.567510 95 88 74 0.882755 0.469832 0.001323 0.000000 
-0.137851 -0.037548 -0.644543 95 93 86 -0.180389 0.955395 -0.233838 0.000000 
-0.128650 -0.028102 -0.560352 86 69 45 -0.499590 -0.864193 0.059839 0.000000 
-0.127823 -0.028383 -0.558148 78 59 39 -0.642082 -0.715372 0.275633 0.000000 
-0.143712 -0.038225 -0.667073 103 101 96 -0.420141 -0.898282 0.128730 0.000000 
-0.140003 -0.038462 -0.657921 88 76 58 -0.303476 -0.913331 0.271531 0.000000 
-0.131216 -0.028332 -0.564273 118 112 99 0.935263 -0.353435 -0.019139 0.000000 
-0.130214 -0.028826 -0.571477 92 73 53 -0.177579 0.977307 0.115489 0.000000 
-0.126574 -0.027157 -0.536358 97 83 67 -0.989962 -0.051501 -0.131613 0.000000 
-0.128822 -0.033377 -0.566982 108 99 81 -0.882946 0.461699 -0.085086 0.000000 
-0.130138 -0.029250 -0.577220 84 75 61 -0.197989 -0.975001 0.100862 0.000000 
-0.137530 -0.034911 -0.641818 73 64 52 0.536207 -0.832957 -0.136623 0.000000 
-0.127379 -0.029826 -0.533888 120 112 102 -0.192610 0.979798 -0.053835 0.000000 
-0.132753 -0.030478 -0.576166 113 103 85 0.502004 -0.843667 0.190312 0.000000 
-0.127199 -0.028584 -0.528831 120 107 93 -0.861926 0.503831 0.056907 0.000000 
-0.127250 -0.029607 -0.566558 94 83 62 0.886566 0.426542 0.179060 0.000000 
-0.135519 -0.036866 -0.647218 80 67 51 -0.993189 -0.100106 0.059614 0.000000 
-0.128246 -0.028252 -0.558322 95 86 71 0.475520 0.834871 -0.277258 0.000000 
-0.132166 -0.034234 -0.610308 77 73 62 0.562813 -0.821908 0.087805 0.000000 
-0.130847 -0.034033 -0.595097 81 75 64 -0.762683 0.622629 0.175067 0.000000 
-0.132284 -0.035743 -0.600720 123 116 100 -0.845160 0.519315 0.126556 0.000000 
-0.134742 -0.035435 -0.617015 82 74 64 -0.331392 -0.930392 -0.156683 0.000000 
-0.126648 -0.029143 -0.535741 122 117 105 0.852127 -0.520202 0.057180 0.000000 
-0.142241 -0.038054 -0.663211 91 87 81 -0.670084 0.734884 0.104563 0.000000 
-0.145797 -0.040483 -0.691627 81 74 61 -0.017165 0.901822 -0.431766 0.000000 
-0.127941 -0.031600 -0.566730 101 92 77 0.913409 -0.406106 0.027599 0.000000 
-0.131693 -0.032568 -0.616676 88 78 61 -0.887846 -0.415307 0.198114 0.000000 
-0.133158 -0.030955 -0.596401 87 77 62 0.285664 -0.951775 -0.111896 0.000000 
-0.134564 -0.035819 -0.632849 76 70 63 0.606615 -0.794343 0.032222 0.000000 
-0.129251 -0.030474 -0.543504 88 74 60 -0.972722 0.215468 0.085938 0.000000 
-0.140531 -0.040190 -0.677192 61 58 46 -0.950522 -0.242715 0.193901 0.000000 
-0.127438 -0.029748 -0.550782 105 92 73 0.869825 -0.491759 0.039724 0.000000 
-0.138929 -0.039212 -0.666190 59 57 47 -0.970509 -0.195122 0.141559 0.000000 
-0.137662 -0.034988 -0.640680 83 71 55 -0.578328 0.763139 -0.288368 0.000000 
-0.141268 -0.040858 -0.675800 76 69 61 -0.991987 0.103879 0.071916 0.000000 
-0.129226 -0.033651 -0.580266 86 72 55 -0.800991 0.598314 -0.020823 0.000000 
-0.126384 -0.029374 -0.531023 110 94 74 0.840071 -0.542461 -0.004058 0.000000 
-0.134476 -0.035609 -0.637504 73 61 47 -0.917915 0.359552 0.167791 0.000000 
-0.126705 -0.028941 -0.541977 95 77 56 -0.795894 0.603636 -0.046651 0.000000 
-0.128356 -0.031074 -0.578002 84 78 67 -0.992457 0.012090 0.121996 0.000000 
-0.143284 -0.042325 -0.694070 66 65 53 -0.997206 0.052825 0.052825 0.000000 
-0.144795 -0.042620 -0.703203 61 56 46 -0.834721 -0.341119 0.432294 0.000000 
-0.130939 -0.031537 -0.604001 77 61 47 0.732901 0.670715 -0.114007 0.000000 
-0.132491 -0.032274 -0.617588 76 68 57 0.779649 0.580457 -0.234984 0.000000 
-0.128078 -0.029958 -0.537332 115 101 82 0.067949 -0.994724 0.076860 0.000000 
-0.150295 -0.049441 -0.741869 103 101 94 -0.602596 -0.731839 0.318261 0.000000 
-0.134143 -0.031512 -0.609804 123 115 104 -0.411219 0.911029 0.030412 0.000000 
-0.138425 -0.038482 -0.662971 64 59 49 0.994030 -0.041094 -0.101069 0.000000 
-0.135869 -0.036270 -0.641997 71 59 50 0.746591 -0.650450 -0.139704 0.000000 
-0.128810 -0.030676 -0.545599 114 100 82 -0.360459 0.932576 0.019242 0.000000 
-0.142905 -0.043422 -0.694986 90 90 84 0.999372 0.033618 0.011206 0.000000 
-0.126625 -0.027548 -0.534730 109 104 94 0.997696 0.003128 0.067764 0.000000 
-0.129925 -0.029629 -0.558467 87 75 56 -0.602080 0.125741 0.788473 0.000000 
-0.130036 -0.028106 -0.570938 81 71 54 0.032677 -0.998237 0.049543 0.000000 
-0.139799 -0.039852 -0.671098 65 61 50 -0.991455 0.126879 -0.030316 0.000000 
-0.139335 -0.037414 -0.663871 65 58 42 0.699762 0.690535 -0.183015 0.000000 
-0.135026 -0.033593 -0.633120 79 73 59 0.469290 0.877981 -0.094422 0.000000 
-0.129165 -0.032367 -0.556620 95 87 73 0.024642 0.979829 -0.198313 0.000000 
-0.126728 -0.027448 -0.530109 86 80 68 -0.611277 0.788791 0.064420 0.000000 
-0.131121 -0.032437 -0.611077 75 71 63 -0.972417 -0.114773 0.203060 0.000000 
-0.129283 -0.031488 -0.552611 85 72 52 -0.597853 0.800419 -0.043608 0.000000 
-0.131136 -0.029858 -0.585191 88 75 58 0.045694 -0.966986 0.250700 0.000000 
-0.133912 -0.035329 -0.609126 86 80 72 -0.298635 0.952299 0.062803 0.000000 
-0.142550 -0.041308 -0.681963 79 71 62 -0.900174 0.434796 0.025263 0.000000 
-0.132984 -0.033324 -0.624733 55 48 37 -0.746076 -0.642327 0.175458 0.000000 
-0.130861 -0.034244 -0.593145 84 78 67 0.834066 -0.546064 0.078416 0.000000 
-0.133269 -0.029168 -0.580868 94 88 71 -0.014429 0.991134 -0.132077 0.000000 
-0.129651 -0.033955 -0.582578 84 79 71 0.810930 -0.574226 -0.112507 0.000000 
-0.127096 -0.030485 -0.566036 111 102 83 -0.996481 0.083658 -0.005295 0.000000 
-0.129083 -0.032261 -0.538283 102 78 54 -0.864145 0.484905 -0.134615 0.000000 
-0.138026 -0.033742 -0.619325 125 119 109 -0.773746 0.630194 0.064598 0.000000 
-0.134394 -0.033176 -0.616325 84 69 53 -0.828792 0.557653 0.046122 0.000000 
-0.136902 -0.038168 -0.655652 75 71 61 0.986909 -0.105444 -0.122031 0.000000 
-0.130709 -0.032529 -0.601814 72 66 59 0.913770 -0.399351 -0.074455 0.000000 
-0.129725 -0.034326 -0.573537 101 97 88 0.637877 -0.770137 0.001378 0.000000 
-0.132351 -0.030983 -0.602549 100 80 63 -0.015042 0.982379 -0.186293 0.000000 
-0.130087 -0.030949 -0.563822 80 68 48 0.668685 0.715229 -0.203243 0.000000 
-0.125731 -0.029021 -0.526406 108 97 80 -0.489472 0.783479 0.382855 0.000000 
-0.132603 -0.035364 -0.601241 100 98 91 0.768614 -0.604685 -0.208779 0.000000 
-0.130790 -0.034502 -0.588563 80 76 69 -0.638815 0.768552 -0.035255 0.000000 
-0.133998 -0.033062 -0.624179 73 66 53 -0.085902 -0.960305 0.265398 0.000000 
-0.133776 -0.031070 -0.577014 97 86 69 0.496765 -0.867647 0.020304 0.000000 
-0.128414 -0.032390 -0.578091 103 89 67 0.886001 -0.463590 0.009298 0.000000 
-0.135885 -0.036646 -0.645685 71 65 58 -0.975574 0.210705 -0.062115 0.000000 
-0.128858 -0.033153 -0.566334 112 103 84 0.605870 -0.701102 0.376001 0.000000 
-0.143388 -0.042678 -0.697625 69 66 56 -0.756448 -0.598526 0.263730 0.000000 
-0.127048 -0.027528 -0.532493 115 109 97 -0.459642 0.725139 0.512741 0.000000 
-0.151160 -0.050074 -0.741923 114 112 106 0.004091 0.816848 -0.576839 0.000000 
