ply
format ascii 1.0
comment Created by Open3D
obj_info Generated by CloudCompare!
element vertex 600
property float x
property float y
property float z
property uchar red
property uchar green
property uchar blue
property float nx
property float ny
property float nz
property float scalar_leaf3
end_header
-0.178252 -0.136692 -0.712440 146 117 90 0.769950 0.446277 0.456085 0.000000 
-0.173167 -0.130771 -0.716967 124 99 71 0.487228 0.281751 0.826575 0.000000 
-0.171198 -0.126581 -0.722310 116 94 63 0.218204 0.580329 0.784605 0.000000 
-0.168753 -0.132457 -0.718360 143 120 97 0.337814 -0.293169 0.894390 0.000000 
-0.149992 -0.101135 -0.772471 104 89 60 0.244528 0.648395 0.720965 0.000000 
-0.189363 -0.147541 -0.698009 140 109 78 -0.907398 0.055280 -0.416621 0.000000 
-0.163377 -0.111460 -0.738923 117 103 79 0.654727 0.604492 0.453787 0.000000 
-0.223805 -0.177547 -0.666856 123 118 111 -0.406507 0.848837 0.337977 0.000000 
-0.203488 -0.165548 -0.687888 123 111 99 0.585930 -0.789865 0.181106 0.000000 
-0.209350 -0.166576 -0.676917 138 123 109 -0.811300 0.063938 -0.581124 0.000000 
-0.200945 -0.156382 -0.686083 111 88 65 0.104542 -0.737682 -0.667006 0.000000 
-0.142229 -0.105405 -0.767760 124 110 92 0.165805 0.749927 0.640404 0.000000 
-0.181022 -0.144654 -0.709680 137 111 91 -0.864773 0.464278 -0.191348 0.000000 
-0.145153 -0.098128 -0.781772 93 76 47 0.534725 0.701305 0.471424 0.000000 
-0.205387 -0.161252 -0.683059 140 121 102 0.214627 0.940206 0.264476 0.000000 
-0.159761 -0.128324 -0.730373 144 126 103 -0.769873 0.287314 -0.569865 0.000000 
-0.181243 -0.144899 -0.708506 141 118 98 0.873858 -0.412026 0.258082 0.000000 
-0.149231 -0.096127 -0.775845 120 106 84 0.813708 0.460199 0.355101 0.000000 
-0.150917 -0.114366 -0.744331 142 124 98 -0.586978 -0.733316 -0.343081 0.000000 
-0.171186 -0.129689 -0.718921 123 100 78 -0.490375 -0.834714 -0.250568 0.000000 
-0.170328 -0.118517 -0.727813 131 115 94 -0.585165 0.055258 -0.809029 0.000000 
-0.146273 -0.112564 -0.750359 128 115 99 -0.624027 -0.427667 -0.653981 0.000000 
-0.191772 -0.144584 -0.696472 136 120 102 -0.117486 0.721277 0.682610 0.000000 
-0.178484 -0.129329 -0.712650 134 112 93 0.747761 0.047002 0.662302 0.000000 
-0.212782 -0.171659 -0.675972 125 114 102 0.748900 -0.662435 0.018130 0.000000 
-0.185995 -0.149303 -0.705428 135 116 96 0.949654 -0.052545 0.308862 0.000000 
-0.210047 -0.168586 -0.676459 117 101 89 -0.719565 0.554148 -0.418506 0.000000 
-0.167567 -0.129340 -0.720568 122 98 77 0.378210 0.558309 0.738409 0.000000 
-0.165737 -0.115859 -0.731792 123 104 82 0.379047 0.345010 0.858657 0.000000 
-0.164246 -0.110197 -0.739146 131 118 100 -0.866281 -0.418677 -0.272521 0.000000 
-0.148634 -0.102555 -0.764060 112 94 71 0.528916 -0.051636 0.847102 0.000000 
-0.175962 -0.138898 -0.714846 157 135 112 0.915760 0.141209 0.376091 0.000000 
-0.196243 -0.152582 -0.689141 133 108 82 0.405024 0.395494 0.824342 0.000000 
-0.202212 -0.163772 -0.687967 119 102 90 -0.805792 0.542866 -0.236634 0.000000 
-0.204311 -0.162683 -0.682997 131 103 82 -0.840299 0.480829 -0.250400 0.000000 
-0.148656 -0.107791 -0.758372 126 108 83 0.862835 0.484526 0.144048 0.000000 
-0.166908 -0.119311 -0.728189 125 106 81 0.361252 0.791542 0.492908 0.000000 
-0.186141 -0.151162 -0.700502 129 113 95 0.869021 -0.017515 0.494466 0.000000 
-0.149936 -0.117340 -0.742517 145 129 108 -0.791728 -0.313824 -0.524101 0.000000 
-0.149732 -0.119920 -0.742128 135 127 116 -0.835989 0.477487 -0.270422 0.000000 
-0.160796 -0.120489 -0.730140 143 123 96 0.531911 0.130413 0.836698 0.000000 
-0.156215 -0.106416 -0.746562 128 113 88 -0.698679 -0.653707 -0.290715 0.000000 
-0.165475 -0.126483 -0.722857 138 117 96 0.147908 -0.121015 0.981569 0.000000 
-0.167688 -0.131403 -0.720366 144 122 98 0.770392 0.415328 0.483735 0.000000 
-0.155832 -0.118582 -0.734966 151 130 102 0.389572 0.129857 0.911795 0.000000 
-0.197934 -0.153728 -0.688211 115 91 72 0.339786 0.398744 0.851792 0.000000 
-0.215472 -0.170470 -0.673550 138 127 113 -0.450449 0.634647 0.627949 0.000000 
-0.186056 -0.151891 -0.706193 134 122 109 -0.726129 0.686496 0.038217 0.000000 
-0.191084 -0.155509 -0.702056 133 122 111 -0.593482 0.782664 0.187656 0.000000 
-0.171497 -0.120610 -0.724373 123 107 89 0.616516 0.521927 0.589491 0.000000 
-0.179995 -0.133004 -0.712111 146 124 100 0.774014 -0.151797 0.614703 0.000000 
-0.182343 -0.137390 -0.707595 147 122 92 -0.637809 -0.098237 -0.763904 0.000000 
-0.184215 -0.148328 -0.711332 118 111 103 0.716238 -0.659817 0.227253 0.000000 
-0.200132 -0.161156 -0.692671 114 102 96 -0.474112 0.842355 0.256235 0.000000 
-0.176582 -0.139944 -0.718570 130 112 95 -0.847982 0.450923 -0.278557 0.000000 
-0.184091 -0.137022 -0.706035 132 111 90 0.311845 0.220712 0.924142 0.000000 
-0.165500 -0.124381 -0.723026 144 119 90 0.309065 0.348263 0.884981 0.000000 
-0.178540 -0.139593 -0.709743 143 116 90 -0.495114 0.077142 -0.865397 0.000000 
-0.193843 -0.149646 -0.692935 138 114 91 0.800538 0.097343 0.591323 0.000000 
-0.156003 -0.111348 -0.737196 132 115 92 0.704945 0.660589 -0.258216 0.000000 
-0.158345 -0.119117 -0.732095 146 123 94 0.228584 0.144988 0.962667 0.000000 
-0.223214 -0.178796 -0.667714 130 110 89 0.608552 -0.718903 -0.335921 0.000000 
-0.157210 -0.117276 -0.735534 147 125 97 0.003905 0.420458 0.907304 0.000000 
-0.165294 -0.134362 -0.725504 134 123 107 0.636425 -0.082634 0.766899 0.000000 
-0.155514 -0.122658 -0.735723 149 128 105 -0.638374 -0.179112 -0.748597 0.000000 
-0.193511 -0.153823 -0.696200 140 109 83 0.889719 0.050413 0.453716 0.000000 
-0.152694 -0.110343 -0.747356 114 98 73 -0.502845 -0.861420 0.071435 0.000000 
-0.210563 -0.169824 -0.677901 117 102 93 -0.430583 0.831198 -0.351721 0.000000 
-0.152263 -0.110770 -0.741913 134 116 91 0.730941 0.399143 0.553544 0.000000 
-0.149201 -0.104710 -0.756870 118 101 76 0.401683 0.845565 0.351668 0.000000 
-0.180141 -0.144206 -0.708625 129 113 95 -0.689297 0.213168 -0.692409 0.000000 
-0.214383 -0.169495 -0.676696 110 98 81 0.773881 0.155380 0.613976 0.000000 
-0.192597 -0.155947 -0.698074 120 107 95 -0.743040 0.570694 -0.349570 0.000000 
-0.225039 -0.182535 -0.663714 106 91 77 -0.478536 0.659876 0.579281 0.000000 
-0.157905 -0.109154 -0.741934 129 112 84 0.064206 0.592121 0.803287 0.000000 
-0.150298 -0.101076 -0.771373 105 91 66 0.355541 0.852366 0.383487 0.000000 
-0.193542 -0.150712 -0.692480 138 110 86 -0.903714 -0.284530 -0.319912 0.000000 
-0.172285 -0.132560 -0.717645 135 111 86 0.135807 -0.506719 0.851347 0.000000 
-0.148214 -0.105482 -0.756092 120 100 70 -0.720987 -0.538668 -0.435907 0.000000 
-0.152191 -0.112969 -0.743020 141 122 96 -0.811826 0.196483 -0.549848 0.000000 
-0.184459 -0.139630 -0.703417 123 97 73 -0.828097 -0.114973 -0.548669 0.000000 
-0.156518 -0.125739 -0.736774 121 117 109 0.949025 -0.311219 0.049949 0.000000 
-0.151097 -0.119540 -0.740135 143 127 109 -0.594660 -0.058189 -0.801869 0.000000 
-0.197392 -0.152401 -0.689021 146 126 106 0.070575 -0.643815 -0.761920 0.000000 
-0.175439 -0.140109 -0.721160 127 120 111 0.431909 -0.716539 0.547747 0.000000 
-0.211697 -0.170565 -0.676886 118 101 90 0.703767 -0.697765 0.133551 0.000000 
-0.144818 -0.113346 -0.751340 129 120 109 -0.956941 -0.256676 -0.135578 0.000000 
-0.174480 -0.129164 -0.717232 131 103 72 -0.073808 -0.727953 -0.681642 0.000000 
-0.195445 -0.155513 -0.691490 140 104 75 -0.746802 0.489625 -0.450060 0.000000 
-0.176540 -0.132714 -0.713660 126 100 74 0.504301 0.305110 0.807830 0.000000 
-0.169076 -0.123811 -0.725897 135 110 79 -0.606663 -0.401687 -0.686009 0.000000 
-0.189213 -0.144077 -0.696952 132 108 90 0.313360 0.307420 0.898498 0.000000 
-0.152936 -0.109643 -0.749162 116 100 77 -0.494888 -0.704840 -0.508218 0.000000 
-0.178575 -0.126358 -0.716881 139 125 108 0.189601 0.722951 0.664375 0.000000 
-0.153874 -0.118468 -0.738187 146 125 101 -0.853089 -0.416481 -0.314296 0.000000 
-0.192100 -0.146474 -0.694677 134 109 84 0.314601 0.534981 0.784106 0.000000 
-0.193677 -0.150821 -0.692385 141 113 89 0.914678 0.273969 0.297162 0.000000 
-0.182721 -0.140098 -0.706658 144 115 81 0.421182 -0.049788 0.905609 0.000000 
-0.196432 -0.157551 -0.692761 130 107 88 -0.812361 0.565831 -0.141086 0.000000 
-0.196512 -0.159505 -0.696733 124 117 107 0.514515 -0.834389 0.197658 0.000000 
-0.144149 -0.113909 -0.751474 129 125 116 -0.956941 -0.256676 -0.135578 0.000000 
-0.202821 -0.164739 -0.687098 133 112 93 -0.771946 0.565032 -0.291270 0.000000 
-0.146648 -0.096426 -0.784657 110 93 66 -0.582227 -0.682324 -0.442092 0.000000 
-0.201929 -0.159589 -0.682923 115 94 73 -0.745368 -0.182133 -0.641292 0.000000 
-0.202347 -0.161643 -0.684949 129 97 71 -0.685668 0.507964 -0.521376 0.000000 
-0.160478 -0.126551 -0.729812 146 126 106 -0.801463 0.006874 -0.598004 0.000000 
-0.155472 -0.123899 -0.734161 143 125 103 -0.728652 -0.212847 -0.650970 0.000000 
-0.170655 -0.123661 -0.725756 121 97 67 -0.860179 0.020383 -0.509585 0.000000 
-0.174306 -0.131877 -0.715728 126 102 74 -0.688142 0.152752 -0.709315 0.000000 
-0.149852 -0.116125 -0.743080 147 128 103 -0.683123 -0.469334 -0.559526 0.000000 
-0.148669 -0.107234 -0.749384 122 105 84 0.804392 0.277539 -0.525285 0.000000 
-0.161475 -0.121400 -0.730647 147 124 96 0.614099 0.175239 0.769528 0.000000 
-0.158118 -0.125060 -0.730575 149 126 101 0.690873 -0.126834 0.711764 0.000000 
-0.168835 -0.113167 -0.732099 136 124 106 -0.135611 0.615465 0.776410 0.000000 
-0.192928 -0.152402 -0.692909 133 107 79 0.946315 -0.161104 -0.280239 0.000000 
-0.198608 -0.159246 -0.697887 117 114 114 -0.583104 0.810103 -0.061006 0.000000 
-0.157063 -0.105059 -0.749465 121 107 85 0.536155 0.787527 0.303874 0.000000 
-0.180197 -0.139589 -0.707933 142 117 87 -0.799006 -0.034983 -0.600304 0.000000 
-0.184143 -0.148691 -0.710006 127 116 102 -0.824831 0.536366 -0.178789 0.000000 
-0.147584 -0.103325 -0.767253 109 90 64 -0.867410 -0.435968 0.239858 0.000000 
-0.213038 -0.171623 -0.672934 99 86 72 0.718680 -0.625429 0.303871 0.000000 
-0.196631 -0.152917 -0.688938 136 114 98 0.438540 0.399987 0.804794 0.000000 
-0.146440 -0.098692 -0.779574 97 79 52 0.702442 0.569592 0.426779 0.000000 
-0.214453 -0.168500 -0.675637 140 128 115 0.407376 -0.881902 -0.237263 0.000000 
-0.166066 -0.131839 -0.722501 146 126 104 -0.994937 0.067660 0.074315 0.000000 
-0.159491 -0.111434 -0.735022 128 116 102 -0.086631 -0.906189 -0.413904 0.000000 
-0.172399 -0.128092 -0.720436 118 95 65 0.465977 0.388583 0.794902 0.000000 
-0.179724 -0.131770 -0.711169 137 114 91 0.870160 -0.034044 0.491593 0.000000 
-0.159029 -0.111912 -0.736078 127 114 95 -0.400786 -0.796744 -0.452293 0.000000 
-0.184094 -0.135033 -0.706193 126 108 87 -0.148735 -0.179244 -0.972496 0.000000 
-0.216450 -0.172700 -0.673674 101 87 71 -0.233846 -0.676427 -0.698400 0.000000 
-0.186349 -0.149811 -0.704444 134 116 97 -0.976073 0.020113 -0.216511 0.000000 
-0.149487 -0.103301 -0.762199 112 96 72 0.581755 0.685104 0.438400 0.000000 
-0.194153 -0.153743 -0.690062 115 95 77 -0.698024 0.293651 -0.653094 0.000000 
-0.147819 -0.112417 -0.755561 125 116 104 -0.693095 0.149491 -0.705175 0.000000 
-0.152064 -0.106106 -0.755043 123 103 72 -0.217994 -0.966141 0.138020 0.000000 
-0.146984 -0.109031 -0.753841 128 112 89 -0.965808 -0.146492 -0.213904 0.000000 
-0.157596 -0.128094 -0.733143 137 125 112 0.685506 -0.531309 0.497788 0.000000 
-0.214568 -0.172691 -0.670641 140 131 119 0.592585 -0.805308 0.017957 0.000000 
-0.173310 -0.124639 -0.721741 111 91 69 -0.752349 -0.561431 -0.344625 0.000000 
-0.154107 -0.117751 -0.736032 148 125 98 -0.886657 0.261661 -0.381278 0.000000 
-0.209127 -0.169370 -0.675364 107 96 84 -0.769632 0.623178 -0.138982 0.000000 
-0.161431 -0.128574 -0.727562 155 131 107 0.698690 -0.009723 0.715358 0.000000 
-0.143621 -0.108937 -0.759682 123 113 99 0.240638 0.917884 0.315568 0.000000 
-0.172154 -0.133781 -0.716946 148 122 93 -0.044798 0.219148 0.974663 0.000000 
-0.149061 -0.116824 -0.743432 144 130 110 0.584442 0.299426 0.754170 0.000000 
-0.150107 -0.117231 -0.741711 141 126 107 -0.616650 -0.525420 -0.586240 0.000000 
-0.174514 -0.136186 -0.717004 140 118 97 0.415916 -0.017057 0.909243 0.000000 
-0.166621 -0.114182 -0.731513 134 119 98 0.346137 0.321953 0.881213 0.000000 
-0.154826 -0.110320 -0.741755 135 115 85 -0.035325 -0.690952 -0.722037 0.000000 
-0.156804 -0.110902 -0.738309 127 111 92 0.878626 -0.359645 0.314120 0.000000 
-0.146884 -0.105523 -0.770540 123 107 89 -0.435083 -0.840536 -0.322803 0.000000 
-0.187520 -0.149210 -0.701866 138 112 85 0.732521 0.169043 0.659422 0.000000 
-0.193927 -0.157786 -0.695584 131 116 100 0.523617 -0.641473 0.560658 0.000000 
-0.151773 -0.114333 -0.743634 138 121 100 0.766417 0.526608 0.367816 0.000000 
-0.181599 -0.132815 -0.709187 134 117 98 0.238469 0.515400 0.823101 0.000000 
-0.182323 -0.143831 -0.706373 151 123 93 0.876393 -0.006670 0.481550 0.000000 
-0.197971 -0.156819 -0.686716 136 112 90 0.896744 -0.221618 0.383061 0.000000 
-0.166232 -0.115071 -0.731716 126 110 89 0.410368 0.413561 0.812752 0.000000 
-0.178209 -0.136786 -0.713499 147 121 94 0.925266 0.154443 0.346453 0.000000 
-0.215494 -0.172955 -0.672079 100 83 69 -0.243251 0.952844 -0.181430 0.000000 
-0.157394 -0.109800 -0.738852 124 111 96 -0.685658 -0.723507 0.080066 0.000000 
-0.151269 -0.110817 -0.743630 141 122 94 0.731335 0.377938 0.567725 0.000000 
-0.158992 -0.107950 -0.743830 128 110 81 -0.282295 -0.790112 -0.544089 0.000000 
-0.145720 -0.103063 -0.763276 112 92 65 -0.577099 -0.144647 -0.803763 0.000000 
-0.222996 -0.177978 -0.669440 134 114 94 0.428408 -0.861390 -0.272900 0.000000 
-0.144309 -0.106885 -0.763861 130 116 96 -0.383825 -0.782227 -0.490714 0.000000 
-0.161926 -0.116568 -0.734143 115 98 75 0.985069 0.082188 0.151274 0.000000 
-0.199432 -0.159670 -0.686560 142 115 91 0.861692 -0.051176 0.504844 0.000000 
-0.160602 -0.113855 -0.732304 100 90 66 0.216857 -0.310403 -0.925539 0.000000 
-0.205342 -0.164599 -0.684264 119 97 81 -0.594430 0.390249 -0.703107 0.000000 
-0.200311 -0.161393 -0.689608 126 104 86 0.592509 -0.801967 -0.076036 0.000000 
-0.158143 -0.113816 -0.734379 140 121 94 -0.975719 0.095464 -0.197127 0.000000 
-0.154659 -0.108134 -0.743413 126 108 78 0.212562 0.909534 0.357162 0.000000 
-0.156075 -0.126530 -0.734513 141 129 114 0.907628 -0.264542 0.325928 0.000000 
-0.163822 -0.128929 -0.725172 143 122 100 -0.979582 -0.106663 -0.170415 0.000000 
-0.152732 -0.103409 -0.766133 117 98 66 0.932182 0.345002 0.109589 0.000000 
-0.186321 -0.148614 -0.704604 135 113 93 -0.982776 0.008027 -0.184629 0.000000 
-0.181115 -0.140004 -0.707124 123 98 70 -0.502038 0.135332 -0.854192 0.000000 
-0.223290 -0.180900 -0.664435 138 131 119 0.143213 -0.921848 -0.360119 0.000000 
-0.171353 -0.115155 -0.730591 133 124 109 -0.429129 0.841093 0.329259 0.000000 
-0.154980 -0.105888 -0.750348 128 110 81 -0.192633 -0.670362 -0.716594 0.000000 
-0.173314 -0.127744 -0.718027 120 99 79 -0.159944 0.548593 0.820648 0.000000 
-0.172343 -0.133405 -0.717148 148 122 95 0.149976 0.072036 0.986062 0.000000 
-0.184319 -0.145863 -0.705404 139 109 84 -0.595633 0.397638 -0.697930 0.000000 
-0.196615 -0.157874 -0.692215 136 113 90 0.883113 -0.457754 0.102819 0.000000 
-0.202998 -0.160600 -0.681143 128 106 89 -0.743175 0.370771 -0.556973 0.000000 
-0.155764 -0.104314 -0.757497 121 103 72 0.900774 0.329840 0.282509 0.000000 
-0.160320 -0.106992 -0.746189 103 89 66 0.191914 0.769192 0.609519 0.000000 
-0.152262 -0.105020 -0.752404 125 107 78 0.542410 0.839279 -0.037455 0.000000 
-0.227533 -0.183672 -0.664329 107 91 73 -0.649300 0.709922 0.272802 0.000000 
-0.192434 -0.154030 -0.697466 133 108 87 0.646427 -0.120369 0.753421 0.000000 
-0.210897 -0.168148 -0.675176 109 92 73 0.989704 -0.098854 0.103506 0.000000 
-0.147590 -0.098612 -0.778262 115 98 70 0.820540 0.563851 0.093735 0.000000 
-0.172339 -0.129549 -0.717216 122 98 73 0.362222 0.752057 0.550642 0.000000 
-0.161142 -0.128688 -0.729826 139 120 104 -0.799672 0.316371 -0.510327 0.000000 
-0.173739 -0.132527 -0.716933 139 114 85 0.449552 -0.184243 0.874047 0.000000 
-0.205898 -0.164584 -0.677722 116 99 79 0.403449 -0.863656 -0.302203 0.000000 
-0.195196 -0.151312 -0.690085 138 116 96 0.365704 0.328980 0.870651 0.000000 
-0.165634 -0.119926 -0.729044 118 97 71 0.410376 0.407183 0.815962 0.000000 
-0.151444 -0.104684 -0.758493 122 103 69 -0.449835 -0.784369 -0.427099 0.000000 
-0.158468 -0.123385 -0.731115 148 126 98 0.567309 0.396294 0.721880 0.000000 
-0.194034 -0.152292 -0.695368 139 109 83 -0.976200 0.077359 -0.202607 0.000000 
-0.151305 -0.119437 -0.739559 145 128 109 -0.693797 -0.142973 -0.705836 0.000000 
-0.163225 -0.107169 -0.742966 134 122 104 0.032205 0.796720 0.603491 0.000000 
-0.177189 -0.127026 -0.717046 146 127 104 -0.496637 -0.421240 -0.758887 0.000000 
-0.158694 -0.101866 -0.755287 131 118 99 -0.206762 -0.685581 -0.698017 0.000000 
-0.160591 -0.126879 -0.728844 151 128 103 -0.912969 -0.049458 -0.405021 0.000000 
-0.201792 -0.161979 -0.685137 139 113 87 0.708110 -0.531499 0.464853 0.000000 
-0.161994 -0.105985 -0.746818 117 103 82 -0.095393 0.952627 0.288794 0.000000 
-0.179629 -0.144064 -0.716522 125 113 101 0.622596 0.247462 0.742386 0.000000 
-0.170783 -0.117159 -0.726964 129 119 103 -0.787039 -0.167680 -0.593678 0.000000 
-0.197983 -0.157166 -0.688696 136 103 77 0.890748 -0.294920 0.345820 0.000000 
-0.158780 -0.122521 -0.731219 146 123 100 0.359551 0.435579 0.825224 0.000000 
-0.162594 -0.120311 -0.730276 125 106 80 -0.280783 -0.582188 -0.763032 0.000000 
-0.190263 -0.154457 -0.700947 127 113 99 -0.842416 0.538324 -0.023286 0.000000 
-0.163377 -0.111460 -0.738923 117 103 79 -0.654727 -0.604492 -0.453787 0.000000 
-0.205368 -0.165951 -0.687295 109 96 89 0.313190 -0.949552 -0.016221 0.000000 
-0.163279 -0.124275 -0.726634 148 124 97 -0.965722 -0.257116 -0.035676 0.000000 
-0.195536 -0.158539 -0.697420 124 116 106 -0.504511 0.862728 0.034181 0.000000 
-0.175111 -0.128192 -0.718113 98 83 56 0.536376 0.476222 0.696788 0.000000 
-0.186353 -0.138556 -0.703346 139 120 100 0.178572 0.755498 0.630345 0.000000 
-0.198760 -0.156568 -0.685362 131 110 93 -0.636419 -0.136269 -0.759211 0.000000 
-0.147898 -0.106004 -0.756488 115 98 73 0.918161 0.364171 0.156073 0.000000 
-0.214054 -0.172613 -0.672534 131 124 112 0.659689 -0.727349 0.189141 0.000000 
-0.174819 -0.137730 -0.715849 149 129 107 0.724441 -0.573310 0.382754 0.000000 
-0.148522 -0.108069 -0.752873 126 108 80 -0.766646 -0.587185 -0.259747 0.000000 
-0.163877 -0.127389 -0.725150 150 126 102 0.967980 -0.194627 0.158537 0.000000 
-0.179765 -0.135303 -0.711337 134 110 86 0.803159 0.073014 0.591274 0.000000 
-0.193755 -0.151185 -0.691346 126 102 77 -0.738170 -0.589567 -0.327896 0.000000 
-0.176376 -0.128718 -0.716964 135 112 82 -0.723117 -0.342871 -0.599618 0.000000 
-0.185206 -0.141574 -0.703372 144 116 84 -0.786627 0.231178 -0.572516 0.000000 
-0.167328 -0.120210 -0.726754 129 111 91 -0.209180 0.241992 -0.947462 0.000000 
-0.156520 -0.119057 -0.732243 150 130 99 0.777074 0.126293 0.616608 0.000000 
-0.204525 -0.165275 -0.685626 117 96 80 -0.587038 0.721125 -0.367921 0.000000 
-0.187499 -0.143708 -0.697498 112 89 67 0.802819 0.103449 0.587180 0.000000 
-0.189247 -0.142141 -0.699297 125 103 82 -0.155926 0.869982 0.467779 0.000000 
-0.174510 -0.126005 -0.719786 103 81 58 0.561339 0.403308 0.722662 0.000000 
-0.156514 -0.112697 -0.741651 117 100 76 -0.133134 0.223613 0.965543 0.000000 
-0.175948 -0.137936 -0.719322 129 109 91 0.882592 -0.189442 0.430282 0.000000 
-0.161841 -0.106192 -0.744410 139 127 106 0.129915 0.886561 0.443995 0.000000 
-0.203751 -0.161921 -0.682383 137 107 87 0.746082 -0.662705 0.064689 0.000000 
-0.149955 -0.112515 -0.745184 140 124 100 -0.830452 -0.387544 -0.400199 0.000000 
-0.192200 -0.146368 -0.694388 143 120 100 0.266583 0.582066 0.768201 0.000000 
-0.175021 -0.127106 -0.718683 103 81 56 -0.530026 -0.236426 -0.814355 0.000000 
-0.215555 -0.173054 -0.670265 135 127 117 0.244278 0.546126 0.801296 0.000000 
-0.191944 -0.144601 -0.697604 138 120 101 0.599453 -0.754457 -0.267302 0.000000 
-0.169746 -0.117833 -0.725820 122 109 87 0.410645 -0.119129 0.903980 0.000000 
-0.162707 -0.130483 -0.729512 132 120 108 0.702612 -0.621102 0.347230 0.000000 
-0.177049 -0.140997 -0.713716 135 112 94 -0.722145 0.683749 -0.104851 0.000000 
-0.185192 -0.145358 -0.703680 142 113 83 0.776536 -0.293781 0.557391 0.000000 
-0.144615 -0.105764 -0.767898 130 114 92 -0.063465 -0.911467 -0.406447 0.000000 
-0.162649 -0.127245 -0.727613 153 130 106 -0.441207 -0.247137 -0.862705 0.000000 
-0.190515 -0.155118 -0.702767 133 124 113 0.638216 -0.769491 -0.023741 0.000000 
-0.187204 -0.150847 -0.702226 144 122 98 0.883374 -0.230123 0.408282 0.000000 
-0.222058 -0.181489 -0.664939 125 122 117 0.160421 -0.855090 -0.493038 0.000000 
-0.146612 -0.105348 -0.764291 125 105 80 -0.715617 -0.133522 -0.685612 0.000000 
-0.194181 -0.157896 -0.695427 132 116 99 -0.541252 0.628932 -0.558114 0.000000 
-0.155313 -0.107125 -0.747238 130 113 85 -0.499454 -0.791738 -0.351705 0.000000 
-0.188635 -0.143935 -0.697619 134 108 84 0.663237 0.055867 0.746321 0.000000 
-0.173793 -0.125944 -0.720503 109 85 59 0.610089 0.373289 0.698889 0.000000 
-0.174566 -0.135165 -0.714748 119 98 78 0.665314 0.318898 0.675027 0.000000 
-0.163272 -0.105227 -0.748376 133 121 102 0.140707 -0.920864 -0.363609 0.000000 
-0.152366 -0.111676 -0.742000 135 115 89 0.803776 -0.141144 0.577946 0.000000 
-0.149312 -0.117985 -0.743326 137 127 112 -0.875871 -0.149115 -0.458928 0.000000 
-0.180199 -0.130964 -0.710870 145 128 107 0.620257 0.453072 0.640319 0.000000 
-0.172445 -0.133140 -0.716910 142 118 92 -0.096351 -0.100994 -0.990210 0.000000 
-0.197172 -0.152415 -0.689570 117 92 71 -0.120628 -0.674625 -0.728238 0.000000 
-0.139544 -0.103637 -0.775051 114 105 91 0.058127 -0.946821 -0.316468 0.000000 
-0.202154 -0.158177 -0.683314 137 115 101 0.404919 0.354891 0.842670 0.000000 
-0.150156 -0.096112 -0.773848 119 106 86 -0.564172 -0.523754 -0.638272 0.000000 
-0.163700 -0.125544 -0.726611 133 110 89 0.999794 -0.019053 -0.007020 0.000000 
-0.149439 -0.109031 -0.750888 123 106 84 0.572992 0.764521 0.295274 0.000000 
-0.226623 -0.182706 -0.665334 104 87 67 0.604668 -0.785920 -0.129253 0.000000 
-0.217132 -0.171970 -0.670690 130 124 118 -0.210666 0.902232 0.376293 0.000000 
-0.194089 -0.156788 -0.699006 116 104 96 0.610720 -0.791571 -0.020867 0.000000 
-0.194153 -0.153743 -0.690062 115 95 77 0.698024 -0.293651 0.653094 0.000000 
-0.194862 -0.155824 -0.692130 142 115 87 0.796079 -0.488539 0.357194 0.000000 
-0.166459 -0.132697 -0.721772 148 127 106 0.851545 -0.520467 0.063129 0.000000 
-0.153957 -0.111142 -0.740853 139 118 88 0.040384 -0.558418 -0.828576 0.000000 
-0.153384 -0.117589 -0.739936 147 128 102 -0.838195 -0.099203 -0.536272 0.000000 
-0.156248 -0.103499 -0.757695 122 104 74 0.861099 0.256659 0.438902 0.000000 
-0.174379 -0.133433 -0.716692 142 118 91 0.535186 -0.123953 0.835590 0.000000 
-0.153699 -0.097893 -0.765961 118 108 87 0.932723 0.089659 0.349269 0.000000 
-0.216160 -0.174991 -0.671698 125 115 107 -0.819150 0.508277 0.265796 0.000000 
-0.207120 -0.167036 -0.680749 128 110 90 -0.852071 0.392666 -0.346105 0.000000 
-0.160290 -0.105097 -0.745407 127 118 104 -0.195839 0.815237 0.545010 0.000000 
-0.227452 -0.183145 -0.666850 113 101 85 0.638063 -0.760024 -0.123448 0.000000 
-0.163432 -0.110919 -0.738974 129 112 87 0.715605 0.631984 0.297499 0.000000 
-0.164761 -0.115165 -0.733430 107 90 68 -0.639280 -0.336720 -0.691333 0.000000 
-0.158251 -0.111828 -0.742285 110 96 74 0.138859 -0.257882 -0.956146 0.000000 
-0.179015 -0.130917 -0.713716 150 129 105 0.854788 -0.012192 0.518834 0.000000 
-0.188884 -0.149952 -0.700120 142 113 84 -0.569518 0.099992 -0.815874 0.000000 
-0.219952 -0.175684 -0.668597 99 87 66 0.625234 -0.697062 -0.350980 0.000000 
-0.160847 -0.124776 -0.729021 150 126 101 -0.570566 -0.043458 -0.820101 0.000000 
-0.147782 -0.100317 -0.773586 97 81 54 -0.687400 -0.503424 -0.523494 0.000000 
-0.155911 -0.125484 -0.734674 140 126 110 -0.944429 0.133379 -0.300439 0.000000 
-0.149076 -0.105174 -0.755033 119 101 74 0.491753 0.818540 0.296937 0.000000 
-0.149716 -0.095837 -0.780365 114 100 76 0.837573 0.530609 0.130094 0.000000 
-0.162287 -0.125870 -0.727963 147 124 101 -0.531107 -0.353534 -0.770025 0.000000 
-0.194367 -0.158042 -0.695548 129 115 101 0.495044 -0.777463 0.387920 0.000000 
-0.181830 -0.143405 -0.706494 153 128 100 0.926419 0.027286 0.375505 0.000000 
-0.187404 -0.142176 -0.699646 114 89 67 0.373736 0.774976 0.509640 0.000000 
-0.199780 -0.159335 -0.685969 146 121 94 -0.797544 0.026446 -0.602681 0.000000 
-0.154258 -0.115234 -0.736582 141 121 96 0.522812 0.800802 0.292206 0.000000 
-0.185560 -0.141175 -0.702784 145 119 89 -0.791586 0.174058 -0.585743 0.000000 
-0.154902 -0.119237 -0.735928 150 127 100 0.592515 -0.174269 0.786484 0.000000 
-0.173125 -0.136148 -0.720153 132 108 87 0.229857 -0.617644 0.752118 0.000000 
-0.159053 -0.116689 -0.734118 141 121 95 0.942112 0.185672 0.279195 0.000000 
-0.163893 -0.129690 -0.724059 149 131 110 0.821989 -0.538441 0.185513 0.000000 
-0.197090 -0.157050 -0.687527 119 99 81 -0.935348 0.283820 -0.211117 0.000000 
-0.172369 -0.128792 -0.719176 117 92 69 -0.749750 -0.551335 -0.365930 0.000000 
-0.152762 -0.097882 -0.767319 121 111 93 0.887655 0.395666 0.235621 0.000000 
-0.179540 -0.130400 -0.712292 133 114 97 0.862368 0.128561 0.489687 0.000000 
-0.191447 -0.151376 -0.696757 143 111 81 0.664532 -0.516485 0.540038 0.000000 
-0.193657 -0.147818 -0.694309 113 91 70 0.394975 0.662699 0.636258 0.000000 
-0.187878 -0.151257 -0.701266 133 112 93 -0.887877 0.203992 -0.412386 0.000000 
-0.156470 -0.107511 -0.745714 128 109 78 0.724684 0.449404 0.522369 0.000000 
-0.215926 -0.171962 -0.670424 123 115 108 -0.104677 0.856054 0.506176 0.000000 
-0.172964 -0.126436 -0.718690 119 97 79 -0.759230 -0.490302 -0.427989 0.000000 
-0.160146 -0.122726 -0.728078 146 124 98 -0.732895 -0.659758 0.166082 0.000000 
-0.208482 -0.167348 -0.677776 122 102 91 0.889908 -0.120258 0.440002 0.000000 
-0.164697 -0.117742 -0.730444 127 107 81 -0.558953 0.633255 0.535312 0.000000 
-0.183783 -0.134264 -0.706896 138 121 103 0.104582 -0.732071 -0.673152 0.000000 
-0.216923 -0.175251 -0.669466 127 116 105 0.156641 0.481635 0.862259 0.000000 
-0.149839 -0.108677 -0.751516 128 109 83 0.627555 0.637595 0.446819 0.000000 
-0.196243 -0.152582 -0.689141 133 108 82 0.405024 0.395494 0.824342 0.000000 
-0.200122 -0.160002 -0.684822 135 112 88 -0.714207 0.162943 -0.680704 0.000000 
-0.162515 -0.113023 -0.738110 117 100 77 0.093517 0.891899 0.442460 0.000000 
-0.180887 -0.136363 -0.711488 145 121 91 -0.823792 -0.329202 -0.461512 0.000000 
-0.174459 -0.128880 -0.717543 130 105 75 0.018191 0.684247 0.729024 0.000000 
-0.153343 -0.099960 -0.765840 117 106 86 0.914192 0.065973 0.399875 0.000000 
-0.175892 -0.135680 -0.715379 151 126 97 -0.529816 0.045890 -0.846870 0.000000 
-0.155489 -0.123755 -0.735410 148 131 111 0.746767 0.089144 0.659084 0.000000 
-0.218719 -0.177577 -0.666913 131 121 113 0.806962 0.345386 0.479084 0.000000 
-0.193222 -0.152902 -0.694858 144 115 83 0.993285 -0.071029 0.091324 0.000000 
-0.159295 -0.106135 -0.745935 126 112 89 -0.257721 -0.408435 -0.875649 0.000000 
-0.153157 -0.097786 -0.763087 118 111 101 -0.976113 0.133731 -0.171226 0.000000 
-0.171264 -0.129801 -0.720438 105 84 62 -0.260906 -0.489392 -0.832120 0.000000 
-0.147878 -0.115411 -0.746985 136 126 111 -0.881852 -0.274921 -0.383087 0.000000 
-0.197091 -0.154838 -0.688223 137 113 93 0.720857 0.012549 0.692971 0.000000 
-0.205590 -0.163190 -0.679252 120 104 89 -0.774168 0.624329 0.104300 0.000000 
-0.169449 -0.137091 -0.723303 128 115 105 -0.851834 0.163871 -0.497518 0.000000 
-0.145043 -0.108795 -0.760535 131 117 98 -0.193886 -0.933161 -0.302685 0.000000 
-0.145044 -0.109016 -0.758443 136 120 98 -0.316879 -0.897080 -0.307953 0.000000 
-0.203099 -0.161965 -0.681637 141 119 98 -0.720002 0.503835 -0.477230 0.000000 
-0.180756 -0.136074 -0.709227 143 116 89 0.947568 0.186251 0.259664 0.000000 
-0.178206 -0.129836 -0.713274 140 118 96 -0.799490 0.278015 -0.532470 0.000000 
-0.207104 -0.167292 -0.682519 118 101 89 0.842362 -0.493275 0.217041 0.000000 
-0.169668 -0.121236 -0.727156 128 104 74 0.549008 0.508714 0.663175 0.000000 
-0.179797 -0.136630 -0.709092 139 110 87 -0.869789 -0.422037 -0.255642 0.000000 
-0.199974 -0.157881 -0.685584 137 113 91 0.538416 -0.303355 0.786183 0.000000 
-0.165202 -0.107835 -0.739293 115 114 109 -0.477670 -0.796117 -0.371521 0.000000 
-0.165006 -0.112340 -0.736422 129 111 88 -0.538431 -0.602570 -0.589068 0.000000 
-0.172039 -0.130161 -0.717901 125 100 76 0.474576 0.704371 0.527862 0.000000 
-0.204525 -0.165275 -0.685626 117 96 80 0.587038 -0.721125 0.367921 0.000000 
-0.190969 -0.147367 -0.695751 139 110 88 0.899687 -0.125308 0.418164 0.000000 
-0.145845 -0.116182 -0.745945 134 128 119 -0.464468 -0.854803 -0.231478 0.000000 
-0.195030 -0.157259 -0.699012 111 101 93 0.639543 -0.762476 -0.098054 0.000000 
-0.214867 -0.172064 -0.670889 136 128 118 0.743206 -0.512499 0.430104 0.000000 
-0.181210 -0.140907 -0.707687 145 120 90 -0.601054 0.282193 -0.747731 0.000000 
-0.151212 -0.110555 -0.746270 138 118 89 -0.732842 -0.680398 0.001380 0.000000 
-0.163974 -0.111241 -0.738286 129 111 87 -0.821578 -0.492947 -0.286379 0.000000 
-0.210396 -0.168491 -0.675739 121 106 94 -0.926945 0.280504 -0.249179 0.000000 
-0.169876 -0.121729 -0.726481 130 108 79 -0.902453 0.095652 -0.420036 0.000000 
-0.199749 -0.161327 -0.687556 135 107 85 0.738525 -0.664525 0.113961 0.000000 
-0.152291 -0.114554 -0.742755 146 125 96 0.701113 0.425972 0.571830 0.000000 
-0.145856 -0.112705 -0.750547 132 120 106 0.492557 0.240908 0.836272 0.000000 
-0.159172 -0.126596 -0.730823 147 123 101 0.545264 -0.318204 0.775522 0.000000 
-0.175526 -0.128724 -0.717971 134 109 77 0.485073 0.521746 0.701773 0.000000 
-0.146808 -0.112278 -0.750399 127 113 95 -0.613055 -0.449351 -0.649805 0.000000 
-0.184807 -0.139282 -0.704164 141 117 90 0.868595 0.398424 0.294620 0.000000 
-0.179378 -0.132692 -0.711990 141 118 93 0.646869 -0.129971 0.751444 0.000000 
-0.156166 -0.118007 -0.735312 146 125 98 -0.081309 -0.231417 -0.969451 0.000000 
-0.150412 -0.111962 -0.746377 139 121 96 -0.778721 -0.349860 -0.520760 0.000000 
-0.211099 -0.170471 -0.673573 124 107 97 0.698051 -0.666250 0.262366 0.000000 
-0.185084 -0.137030 -0.705391 119 100 79 0.431037 0.493316 0.755544 0.000000 
-0.162223 -0.110461 -0.739317 129 117 98 -0.085762 0.870273 0.485047 0.000000 
-0.171669 -0.130649 -0.717931 128 104 80 0.575177 0.484624 0.659022 0.000000 
-0.168814 -0.136530 -0.723645 142 128 112 0.850169 -0.265008 0.454955 0.000000 
-0.162165 -0.122672 -0.728560 146 124 97 0.610215 0.417340 0.673398 0.000000 
-0.188475 -0.151086 -0.699537 122 101 78 -0.728616 0.268271 -0.630198 0.000000 
-0.196303 -0.158251 -0.695673 114 100 90 0.637011 -0.623635 0.453097 0.000000 
-0.177718 -0.141053 -0.717259 130 113 99 0.897076 -0.438359 -0.055643 0.000000 
-0.144116 -0.108195 -0.762023 127 114 98 -0.415099 -0.819064 -0.396014 0.000000 
-0.162857 -0.104525 -0.750017 132 119 100 -0.139349 0.750684 0.645798 0.000000 
-0.155296 -0.104122 -0.758929 111 93 65 0.164908 0.456781 0.874160 0.000000 
-0.175234 -0.127412 -0.718423 132 111 88 -0.536570 -0.321942 -0.780029 0.000000 
-0.162544 -0.124131 -0.724047 148 126 97 -0.012136 0.991844 -0.126877 0.000000 
-0.169435 -0.112108 -0.731832 130 130 125 0.223382 -0.710761 -0.667022 0.000000 
-0.165557 -0.130494 -0.724540 138 116 95 -0.488462 0.518469 -0.701851 0.000000 
-0.154483 -0.115652 -0.736653 150 128 98 -0.617548 -0.738200 -0.271467 0.000000 
-0.170172 -0.121931 -0.725613 125 103 74 -0.765927 0.038085 -0.641799 0.000000 
-0.212505 -0.171508 -0.675385 126 114 102 -0.778271 0.627367 -0.026548 0.000000 
-0.168712 -0.128735 -0.721310 138 114 86 -0.216020 -0.484913 -0.847464 0.000000 
-0.171201 -0.117154 -0.726159 118 114 105 0.583384 0.128492 0.801968 0.000000 
-0.158885 -0.117916 -0.731827 130 110 83 0.418088 0.466893 0.779239 0.000000 
-0.146404 -0.102434 -0.774433 100 80 56 -0.834785 -0.449499 -0.317939 0.000000 
-0.145386 -0.102718 -0.774568 107 92 72 -0.647070 -0.689235 -0.325968 0.000000 
-0.157161 -0.121163 -0.732117 147 125 98 0.383655 -0.425046 0.819844 0.000000 
-0.203751 -0.161921 -0.682383 137 107 87 -0.746082 0.662705 -0.064689 0.000000 
-0.166295 -0.108344 -0.742247 131 123 110 -0.006376 0.929597 0.368523 0.000000 
-0.202288 -0.160105 -0.682819 144 122 100 -0.875854 0.345772 -0.336633 0.000000 
-0.197344 -0.155418 -0.688059 137 113 92 0.881725 -0.281851 0.378313 0.000000 
-0.208008 -0.166583 -0.678652 123 102 90 0.942977 -0.008789 0.332742 0.000000 
-0.149984 -0.104432 -0.759155 115 97 67 -0.427375 -0.778374 -0.459875 0.000000 
-0.174460 -0.128635 -0.718714 98 73 46 -0.297231 -0.621776 -0.724602 0.000000 
-0.161146 -0.118098 -0.730847 140 121 96 0.140309 0.542035 0.828560 0.000000 
-0.152953 -0.109267 -0.743300 137 118 87 -0.303214 -0.736376 -0.604823 0.000000 
-0.198171 -0.160583 -0.691472 135 117 99 0.607020 -0.783011 0.135722 0.000000 
-0.216705 -0.174415 -0.669284 124 114 107 0.009266 0.459331 0.888217 0.000000 
-0.178396 -0.142435 -0.712615 143 120 100 -0.793167 0.608965 0.006873 0.000000 
-0.167169 -0.110574 -0.736543 134 124 107 0.009527 0.834309 0.551215 0.000000 
-0.199344 -0.161409 -0.688011 144 120 100 -0.743627 0.666255 -0.055879 0.000000 
-0.152207 -0.102774 -0.759011 120 104 75 0.570272 0.693304 0.440589 0.000000 
-0.145635 -0.106212 -0.767630 133 117 96 0.219218 0.936914 0.272278 0.000000 
-0.176927 -0.138403 -0.712053 149 122 97 0.796380 0.574064 0.190339 0.000000 
-0.180756 -0.136074 -0.709227 143 116 89 -0.947568 -0.186251 -0.259664 0.000000 
-0.173471 -0.117769 -0.727222 130 121 106 0.139877 0.462890 0.875310 0.000000 
-0.147783 -0.108252 -0.759302 132 113 88 0.652446 0.727189 0.213330 0.000000 
-0.179486 -0.130386 -0.712654 138 119 100 -0.863546 -0.119258 -0.489965 0.000000 
-0.166232 -0.115071 -0.731716 126 110 89 0.410368 0.413561 0.812752 0.000000 
-0.179550 -0.143727 -0.710279 140 118 94 0.695184 -0.623212 0.358224 0.000000 
-0.160679 -0.101979 -0.752822 131 123 107 0.306503 0.951772 -0.013650 0.000000 
-0.198785 -0.160506 -0.688077 152 129 107 -0.890112 0.415191 -0.187929 0.000000 
-0.175376 -0.130884 -0.715212 128 102 73 0.356790 0.413373 0.837749 0.000000 
-0.164205 -0.125094 -0.724196 134 110 87 -0.557144 0.186727 -0.809150 0.000000 
-0.167895 -0.113920 -0.731327 135 125 111 0.227427 0.496066 0.837971 0.000000 
-0.146146 -0.103497 -0.763834 108 87 62 -0.470330 -0.172504 -0.865466 0.000000 
-0.161037 -0.109951 -0.737250 125 116 105 0.076799 -0.737558 -0.670902 0.000000 
-0.151925 -0.106820 -0.754651 108 94 69 -0.770039 -0.624074 0.132560 0.000000 
-0.168706 -0.137268 -0.724045 135 123 112 -0.850169 0.265008 -0.454955 0.000000 
-0.155839 -0.113828 -0.739673 148 126 97 0.353028 0.892252 0.281528 0.000000 
-0.179103 -0.135881 -0.711871 144 117 93 0.506574 0.370624 0.778473 0.000000 
-0.190995 -0.148248 -0.696409 141 109 80 0.866146 -0.197594 0.459072 0.000000 
-0.178734 -0.128860 -0.713825 138 121 103 0.774158 0.100977 0.624887 0.000000 
-0.152775 -0.117132 -0.740540 145 126 102 -0.730404 -0.343241 -0.590505 0.000000 
-0.153874 -0.099166 -0.764942 118 107 89 -0.903857 -0.014472 -0.427589 0.000000 
-0.188833 -0.142838 -0.697379 132 114 101 0.187141 0.567510 0.801817 0.000000 
-0.159566 -0.125415 -0.730215 140 118 98 0.430282 -0.189442 0.882592 0.000000 
-0.152526 -0.101464 -0.769895 118 101 75 -0.764354 -0.621512 -0.171714 0.000000 
-0.179846 -0.140995 -0.709062 140 113 86 0.647476 0.043921 0.760819 0.000000 
-0.225645 -0.181953 -0.665088 102 84 67 -0.629272 0.730717 0.264706 0.000000 
-0.144564 -0.107695 -0.763073 128 116 98 -0.301875 -0.849895 -0.431914 0.000000 
-0.173042 -0.127924 -0.720163 99 77 51 0.661291 0.470437 0.584280 0.000000 
-0.201589 -0.164163 -0.688916 133 117 102 -0.834890 0.531562 -0.142830 0.000000 
-0.198187 -0.159061 -0.689726 142 116 93 0.837054 -0.406749 0.365917 0.000000 
-0.175687 -0.126017 -0.718697 140 119 95 -0.551231 -0.282723 -0.784991 0.000000 
-0.150768 -0.120045 -0.740982 136 126 117 0.825563 -0.348852 0.443563 0.000000 
-0.152860 -0.118908 -0.739657 146 128 106 -0.572229 -0.478256 -0.666202 0.000000 
-0.186745 -0.142124 -0.700309 122 96 71 0.788572 0.461485 0.406430 0.000000 
-0.164863 -0.109228 -0.739069 133 124 110 -0.658568 -0.715152 -0.234192 0.000000 
-0.158215 -0.109383 -0.742747 104 90 64 -0.026475 0.597781 0.801222 0.000000 
-0.164248 -0.129087 -0.724027 151 129 104 -0.776078 0.359803 -0.517923 0.000000 
-0.161105 -0.116672 -0.733396 139 120 96 0.143232 0.467312 0.872413 0.000000 
-0.147418 -0.116033 -0.747579 131 126 115 -0.892327 -0.407462 -0.194238 0.000000 
-0.153825 -0.116215 -0.736266 143 122 98 -0.897706 -0.440259 -0.017187 0.000000 
-0.178317 -0.139946 -0.709936 148 120 94 0.484710 -0.103765 0.868498 0.000000 
-0.165526 -0.112904 -0.735000 110 96 77 -0.429084 -0.751308 -0.501420 0.000000 
-0.173799 -0.122692 -0.722979 131 110 87 -0.554448 -0.066647 -0.829545 0.000000 
-0.149082 -0.109386 -0.747363 134 114 88 -0.422746 -0.375247 -0.824909 0.000000 
-0.183045 -0.150762 -0.707661 103 92 78 0.618761 -0.782424 -0.070346 0.000000 
-0.181169 -0.144840 -0.708110 146 123 99 0.881974 -0.284945 0.375404 0.000000 
-0.196783 -0.153374 -0.688558 137 114 95 0.537255 0.314063 0.782766 0.000000 
-0.191608 -0.148779 -0.694590 142 113 83 -0.801111 0.163829 -0.575657 0.000000 
-0.164345 -0.120802 -0.729076 123 103 78 0.118032 0.335102 0.934759 0.000000 
-0.187865 -0.148279 -0.701958 136 108 80 0.758248 0.058768 0.649312 0.000000 
-0.220790 -0.176660 -0.669613 143 132 118 0.416054 -0.898848 -0.137738 0.000000 
-0.188167 -0.146547 -0.697196 114 90 68 0.563712 -0.516596 0.644483 0.000000 
-0.185035 -0.137770 -0.705473 131 109 89 0.613055 0.449351 0.649805 0.000000 
-0.186633 -0.142589 -0.699471 131 105 81 -0.793821 -0.347998 -0.498744 0.000000 
-0.155662 -0.099600 -0.761151 128 114 94 0.402764 0.807132 0.431647 0.000000 
-0.191177 -0.144287 -0.696603 128 108 87 0.172577 0.685725 0.707106 0.000000 
-0.154215 -0.114631 -0.740128 147 127 100 -0.583380 -0.774191 -0.245552 0.000000 
-0.167408 -0.133834 -0.724391 134 116 100 0.747129 -0.299172 0.593544 0.000000 
-0.177971 -0.142133 -0.711842 153 131 107 0.861852 -0.473203 0.182457 0.000000 
-0.213094 -0.166356 -0.677875 142 128 113 0.617391 0.165345 0.769084 0.000000 
-0.166299 -0.128043 -0.722531 145 123 95 0.287145 0.365320 0.885488 0.000000 
-0.160535 -0.130133 -0.731171 140 125 107 -0.719355 0.567911 -0.400007 0.000000 
-0.151438 -0.109279 -0.746128 129 112 84 -0.586047 -0.806710 0.075943 0.000000 
-0.159886 -0.122875 -0.731151 151 127 99 0.369849 0.354374 0.858854 0.000000 
-0.157174 -0.126867 -0.732628 138 123 108 0.866812 -0.200720 0.456452 0.000000 
-0.147357 -0.102175 -0.763810 113 96 73 0.516140 0.107829 0.849690 0.000000 
-0.222058 -0.181489 -0.664939 125 122 117 0.160421 -0.855090 -0.493038 0.000000 
-0.181380 -0.145522 -0.708769 136 111 90 0.844418 -0.485350 0.226700 0.000000 
-0.180309 -0.139512 -0.708690 147 120 90 0.663228 -0.032387 0.747716 0.000000 
-0.185594 -0.142901 -0.703035 143 116 84 0.776196 -0.041001 0.629157 0.000000 
-0.170842 -0.137850 -0.721502 136 122 107 0.385704 -0.082554 0.918922 0.000000 
-0.165268 -0.115525 -0.732561 124 105 84 -0.565639 -0.341976 -0.750403 0.000000 
-0.202996 -0.157564 -0.684118 131 113 102 -0.192018 -0.474835 -0.858872 0.000000 
-0.181202 -0.130410 -0.710844 140 126 109 0.182790 0.729624 0.658966 0.000000 
-0.169340 -0.133618 -0.717994 137 117 96 -0.713412 0.262167 -0.649856 0.000000 
-0.176008 -0.129163 -0.714538 96 84 59 0.638178 0.493367 0.591031 0.000000 
-0.155411 -0.095962 -0.769931 112 108 99 0.456319 0.856545 0.241046 0.000000 
-0.179523 -0.126932 -0.717511 139 128 112 0.168777 0.895819 0.411124 0.000000 
-0.148972 -0.115365 -0.745594 141 127 107 -0.741733 -0.425962 -0.518062 0.000000 
-0.186029 -0.137334 -0.705388 128 111 94 -0.385226 0.765576 0.515261 0.000000 
-0.145202 -0.108912 -0.759426 132 116 95 -0.193856 -0.908970 -0.369045 0.000000 
-0.188698 -0.145472 -0.700177 136 103 77 0.871364 -0.415295 0.261258 0.000000 
-0.162045 -0.131629 -0.729796 136 124 108 0.676677 -0.695605 0.241332 0.000000 
-0.224420 -0.182246 -0.665959 120 110 103 0.447929 -0.891748 -0.064381 0.000000 
-0.147854 -0.102060 -0.765190 110 93 71 -0.613976 -0.773881 0.155380 0.000000 
-0.148070 -0.095326 -0.781691 116 102 79 -0.661850 -0.693900 -0.283650 0.000000 
-0.165344 -0.119489 -0.728548 128 109 86 -0.380035 -0.373779 -0.846086 0.000000 
-0.175180 -0.135259 -0.715380 114 95 78 -0.544418 -0.034632 -0.838099 0.000000 
-0.166757 -0.133261 -0.725515 134 117 101 0.597315 -0.154971 0.786892 0.000000 
-0.177267 -0.140479 -0.711691 158 134 109 0.846748 -0.262784 0.462561 0.000000 
-0.197301 -0.159295 -0.694178 122 107 93 -0.851642 0.523983 -0.012186 0.000000 
-0.192356 -0.151208 -0.696415 139 107 78 0.656933 -0.509081 0.556125 0.000000 
-0.152555 -0.103720 -0.758035 121 103 74 -0.489047 -0.620131 -0.613409 0.000000 
-0.179593 -0.131207 -0.711057 134 113 90 0.822802 0.242364 0.514058 0.000000 
-0.162592 -0.124375 -0.725787 136 114 89 0.481712 0.801787 -0.353682 0.000000 
-0.160154 -0.123973 -0.728738 147 127 103 -0.724560 0.311448 -0.614827 0.000000 
-0.191978 -0.155496 -0.697420 130 107 82 0.821877 -0.312722 0.476154 0.000000 
-0.164206 -0.109063 -0.739701 132 122 107 -0.725374 -0.616005 -0.307198 0.000000 
-0.153567 -0.114962 -0.739074 149 127 99 -0.534504 -0.778481 -0.329049 0.000000 
-0.187098 -0.142031 -0.700055 126 101 76 0.492213 0.666924 0.559410 0.000000 
-0.143476 -0.106774 -0.764371 130 118 99 -0.499633 -0.804172 -0.321986 0.000000 
-0.210416 -0.169054 -0.680335 116 103 94 0.776516 -0.620919 -0.107156 0.000000 
-0.209103 -0.167150 -0.676726 133 118 104 0.908854 -0.041372 0.415057 0.000000 
-0.145503 -0.112169 -0.749451 121 110 92 0.608332 0.457506 0.648552 0.000000 
-0.172779 -0.126011 -0.721893 93 76 49 0.650264 0.478877 0.589774 0.000000 
-0.193107 -0.149229 -0.693055 137 113 91 -0.666763 -0.136349 -0.732691 0.000000 
-0.186207 -0.138385 -0.704623 107 84 60 0.235189 0.822393 0.518031 0.000000 
-0.159073 -0.104535 -0.746362 120 117 108 -0.097886 -0.934613 -0.341932 0.000000 
-0.180890 -0.135124 -0.711393 151 124 93 -0.887078 -0.076114 -0.455302 0.000000 
-0.192888 -0.147379 -0.693916 133 111 92 0.071917 0.325590 0.942772 0.000000 
-0.178822 -0.142088 -0.717092 127 110 95 0.325208 0.034434 0.945015 0.000000 
-0.171689 -0.124693 -0.721743 114 95 73 -0.576511 -0.452854 -0.680116 0.000000 
-0.156974 -0.106746 -0.744957 127 113 90 0.776588 0.255725 0.575774 0.000000 
-0.157340 -0.124974 -0.732896 145 126 105 0.867459 0.128459 0.480639 0.000000 
-0.156166 -0.118007 -0.735312 146 125 98 0.081309 0.231417 0.969451 0.000000 
-0.156084 -0.114798 -0.738898 149 127 97 -0.281528 -0.892252 -0.353028 0.000000 
-0.168600 -0.133597 -0.720230 144 121 98 0.718521 -0.679191 0.149755 0.000000 
-0.195363 -0.156418 -0.691648 148 123 94 0.764098 -0.489219 0.420499 0.000000 
-0.186029 -0.148746 -0.706113 132 112 95 -0.666336 0.176158 -0.724545 0.000000 
-0.174526 -0.128667 -0.718276 123 97 69 -0.055963 -0.707432 -0.704562 0.000000 
-0.151663 -0.118910 -0.737949 135 119 99 0.732269 0.551259 0.399869 0.000000 
-0.205837 -0.163376 -0.679658 143 125 106 -0.894715 0.271530 -0.354622 0.000000 
-0.165925 -0.119400 -0.726757 89 78 54 0.583434 0.539465 0.607110 0.000000 
-0.178953 -0.130449 -0.713884 141 122 104 0.876661 -0.082493 0.473984 0.000000 
-0.177312 -0.143315 -0.718429 134 125 114 -0.589498 -0.015186 -0.807627 0.000000 
-0.200387 -0.160697 -0.683956 107 93 79 0.726041 -0.290096 0.623465 0.000000 
-0.207091 -0.166186 -0.680086 127 108 89 0.766813 -0.544033 0.340626 0.000000 
-0.200657 -0.161611 -0.693251 117 108 102 0.420363 -0.797240 -0.433248 0.000000 
-0.185368 -0.137784 -0.704857 132 111 93 0.355769 0.673829 0.647598 0.000000 
-0.151469 -0.097600 -0.770469 112 102 80 0.927106 0.160327 0.338777 0.000000 
-0.161927 -0.127748 -0.724206 127 109 91 0.664307 -0.506218 0.549945 0.000000 
-0.191572 -0.146273 -0.694742 137 114 95 0.539084 0.357771 0.762488 0.000000 
-0.185990 -0.147817 -0.705862 134 107 83 -0.662331 0.467824 -0.585199 0.000000 
-0.167681 -0.135263 -0.719380 108 96 80 0.606486 -0.731966 0.310482 0.000000 
-0.208271 -0.163228 -0.680932 101 83 63 -0.241847 0.955361 -0.169693 0.000000 
-0.156298 -0.107489 -0.745954 111 95 69 -0.667610 -0.536442 -0.516262 0.000000 
-0.189159 -0.142229 -0.703506 96 76 59 0.296136 -0.310869 0.903141 0.000000 
-0.187431 -0.151114 -0.701829 140 119 96 0.902460 -0.260580 0.343023 0.000000 
-0.152759 -0.103530 -0.757395 121 103 78 0.528449 0.633125 0.565592 0.000000 
-0.194055 -0.153498 -0.692022 139 103 76 0.861543 -0.455580 0.224031 0.000000 
-0.176016 -0.125305 -0.718351 130 114 89 0.337607 0.680107 0.650750 0.000000 
-0.177269 -0.129757 -0.715490 147 123 95 0.623030 0.236971 0.745439 0.000000 
-0.204003 -0.164200 -0.684651 136 111 85 0.633125 -0.528449 0.565592 0.000000 
-0.187485 -0.149872 -0.701439 143 117 90 0.864674 0.017591 0.502025 0.000000 
-0.156244 -0.119350 -0.732269 135 114 87 -0.800653 -0.046599 -0.597313 0.000000 
-0.207057 -0.164478 -0.678464 141 112 92 -0.054467 -0.532096 -0.844930 0.000000 
-0.213756 -0.172440 -0.673837 129 116 110 0.716151 -0.689572 0.107792 0.000000 
-0.193934 -0.152921 -0.694650 144 109 81 0.999667 -0.019244 0.017218 0.000000 
-0.161680 -0.123426 -0.727997 141 120 98 -0.162259 -0.647521 0.744573 0.000000 
-0.189547 -0.145544 -0.697045 134 106 82 -0.713765 0.153058 -0.683457 0.000000 
-0.151617 -0.104918 -0.752288 127 109 81 0.770137 0.637877 -0.001378 0.000000 
-0.158782 -0.119332 -0.731888 144 124 98 0.305906 0.076802 0.948959 0.000000 
-0.166291 -0.120011 -0.727732 131 109 80 -0.781723 -0.279525 -0.557471 0.000000 
-0.155764 -0.104314 -0.757497 121 103 72 0.900774 0.329840 0.282509 0.000000 
-0.141431 -0.106577 -0.768492 125 118 106 -0.276496 -0.775770 -0.567213 0.000000 
-0.154260 -0.096340 -0.768081 119 113 104 0.530033 0.826006 0.191778 0.000000 
-0.166874 -0.116149 -0.730824 127 111 89 -0.621803 -0.344358 -0.703405 0.000000 
-0.224390 -0.181947 -0.664362 112 100 88 0.402107 -0.893409 -0.200323 0.000000 
-0.171689 -0.130383 -0.719845 134 109 77 0.582186 0.652652 0.484875 0.000000 
-0.182557 -0.139284 -0.706785 143 115 84 -0.428192 0.033348 -0.903072 0.000000 
-0.181185 -0.132332 -0.709573 124 107 90 -0.589188 -0.360694 -0.723020 0.000000 
-0.189309 -0.143656 -0.697321 134 111 91 -0.187803 -0.453982 -0.870994 0.000000 
-0.184777 -0.148691 -0.708489 121 109 98 -0.906931 0.419505 0.038621 0.000000 
-0.176657 -0.126740 -0.717084 141 122 105 -0.616909 -0.296437 -0.729074 0.000000 
-0.148821 -0.103921 -0.757389 109 95 68 -0.407384 -0.894505 -0.184120 0.000000 
-0.147487 -0.109043 -0.755354 132 114 89 -0.740554 -0.341919 -0.578507 0.000000 
-0.151582 -0.108574 -0.749668 124 105 79 0.612296 0.416494 0.672032 0.000000 
-0.187284 -0.147926 -0.702219 134 107 83 0.608970 -0.247050 0.753738 0.000000 
-0.186652 -0.143317 -0.699496 138 111 81 0.798431 0.088393 0.595563 0.000000 
-0.177333 -0.138196 -0.713431 153 129 103 -0.731074 -0.622767 -0.278732 0.000000 
-0.155271 -0.102473 -0.752386 127 114 96 0.193122 0.973185 0.124961 0.000000 
-0.164543 -0.113217 -0.734123 104 90 73 -0.474476 -0.821269 -0.316843 0.000000 
-0.176833 -0.142358 -0.718871 134 124 113 -0.768514 -0.135796 -0.625257 0.000000 
-0.166474 -0.113367 -0.732613 123 107 87 -0.538450 -0.599215 -0.592464 0.000000 
-0.147287 -0.101421 -0.772863 91 71 44 0.582090 0.534848 0.612460 0.000000 
-0.163180 -0.108436 -0.738178 112 103 83 0.266584 0.963805 -0.003619 0.000000 
-0.201791 -0.163039 -0.689239 110 94 82 -0.876380 0.476384 0.070833 0.000000 
-0.193730 -0.150618 -0.693940 141 111 86 -0.933947 0.194049 -0.300147 0.000000 
-0.210416 -0.167690 -0.674884 151 134 116 0.258025 0.489784 0.832787 0.000000 
-0.168899 -0.130506 -0.720064 144 122 95 0.222343 0.614164 0.757210 0.000000 
-0.171460 -0.128263 -0.720764 126 102 73 -0.381904 -0.282277 -0.880039 0.000000 
-0.183037 -0.143046 -0.705503 146 118 86 0.656543 0.082978 0.749711 0.000000 
-0.153216 -0.115439 -0.741180 145 126 103 -0.869773 -0.438629 -0.226051 0.000000 
