ply
format ascii 1.0
comment Created by Open3D
obj_info Generated by CloudCompare!
element vertex 621
property float x
property float y
property float z
property uchar red
property uchar green
property uchar blue
property float nx
property float ny
property float nz
property float scalar_leaf5
end_header
-0.116552 0.106478 -0.545109 87 89 82 -0.771894 0.544017 -0.328978 0.000000 
-0.137171 0.108224 -0.518727 89 79 60 -0.196078 -0.977952 -0.071855 0.000000 
-0.136374 0.106110 -0.524835 81 72 56 0.861028 0.243630 0.446403 0.000000 
-0.146844 0.107621 -0.498546 103 92 71 0.288121 0.931824 0.220658 0.000000 
-0.127158 0.104174 -0.537483 70 62 48 -0.581430 -0.803350 0.128714 0.000000 
-0.109413 0.102733 -0.562207 59 56 46 -0.749700 0.469592 -0.466297 0.000000 
-0.158230 0.110513 -0.473589 89 83 71 -0.357091 -0.934027 -0.008895 0.000000 
-0.122234 0.107065 -0.541296 73 70 56 0.108406 0.975655 -0.190645 0.000000 
-0.119209 0.107903 -0.542335 67 65 53 -0.164435 -0.961613 -0.219685 0.000000 
-0.083372 0.100215 -0.603636 68 65 53 0.840124 -0.290394 0.458108 0.000000 
-0.061525 0.094211 -0.643304 71 76 70 0.163353 -0.973787 0.158288 0.000000 
-0.184453 0.113115 -0.443030 59 55 41 0.684918 0.727459 0.041123 0.000000 
-0.178037 0.111290 -0.445124 51 44 27 0.848828 -0.528668 -0.001345 0.000000 
-0.138430 0.107320 -0.511721 83 76 61 -0.098123 -0.982440 -0.158693 0.000000 
-0.058053 0.095753 -0.644773 64 65 53 -0.809072 0.332212 -0.484807 0.000000 
-0.141952 0.106013 -0.508997 79 72 53 0.138099 0.989518 0.042229 0.000000 
-0.158382 0.110948 -0.473862 103 103 96 0.023556 -0.990466 0.135726 0.000000 
-0.045316 0.092719 -0.670532 65 63 48 -0.513619 0.813361 -0.273202 0.000000 
-0.094289 0.102892 -0.583192 64 62 51 0.696892 -0.560507 0.447408 0.000000 
-0.103404 0.102925 -0.570352 81 86 80 0.739775 -0.401873 0.539658 0.000000 
-0.177453 0.111544 -0.450675 56 48 31 -0.134296 -0.822007 0.553416 0.000000 
-0.167342 0.113039 -0.472372 76 73 56 -0.285582 0.927786 -0.240116 0.000000 
-0.046242 0.090105 -0.685906 76 79 72 0.225028 0.974335 -0.005891 0.000000 
-0.118309 0.107506 -0.541455 87 85 75 -0.863661 -0.089052 -0.496145 0.000000 
-0.153809 0.108120 -0.481391 94 87 72 -0.952298 0.285033 0.109022 0.000000 
-0.162057 0.110031 -0.467675 60 51 35 0.027731 -0.999336 0.023623 0.000000 
-0.120080 0.105676 -0.540996 47 43 28 0.565449 -0.774523 0.283517 0.000000 
-0.181141 0.111572 -0.437491 80 76 63 0.790828 -0.237714 0.563989 0.000000 
-0.185785 0.115894 -0.435379 71 63 37 0.255196 0.966871 0.005991 0.000000 
-0.148077 0.107341 -0.492362 102 100 94 -0.948074 -0.152393 -0.279163 0.000000 
-0.162381 0.111067 -0.464473 102 103 98 -0.523099 -0.165424 -0.836064 0.000000 
-0.127203 0.107856 -0.525873 111 107 94 -0.840968 -0.296904 -0.452351 0.000000 
-0.161579 0.110591 -0.466330 89 84 71 -0.866502 0.259495 -0.426422 0.000000 
-0.204474 0.116622 -0.395730 128 125 117 -0.705702 -0.708475 -0.006932 0.000000 
-0.197844 0.115751 -0.407741 78 70 51 0.775083 0.407853 0.482599 0.000000 
-0.137391 0.107885 -0.513491 113 104 84 0.291939 0.956436 0.001222 0.000000 
-0.197589 0.115174 -0.415039 69 65 51 -0.673996 -0.711182 -0.199875 0.000000 
-0.143207 0.109015 -0.511710 82 71 51 0.276649 0.938381 0.207139 0.000000 
-0.140805 0.106643 -0.506790 106 99 84 0.345912 0.808191 0.476626 0.000000 
-0.041986 0.092413 -0.676915 67 72 59 0.415550 -0.848219 0.328393 0.000000 
-0.060241 0.093912 -0.648697 59 59 47 -0.370941 0.915365 -0.156557 0.000000 
-0.164265 0.108458 -0.480675 65 61 47 -0.324298 -0.944470 -0.052973 0.000000 
-0.044025 0.092910 -0.672508 62 63 50 -0.751597 0.624523 -0.212307 0.000000 
-0.147798 0.109269 -0.502620 84 72 52 -0.547020 -0.805892 -0.226513 0.000000 
-0.039364 0.091609 -0.681668 69 70 56 -0.221656 0.854961 -0.468947 0.000000 
-0.093683 0.102742 -0.584095 65 63 51 -0.733419 0.552935 -0.395423 0.000000 
-0.081923 0.100713 -0.604983 82 80 61 0.693267 -0.286593 0.661245 0.000000 
-0.182048 0.114400 -0.443420 93 88 73 0.229557 0.969660 0.084046 0.000000 
-0.084729 0.098671 -0.608731 85 85 79 0.586257 0.701856 0.404600 0.000000 
-0.082678 0.097767 -0.608320 86 91 89 0.179217 -0.968289 0.174060 0.000000 
-0.110125 0.107219 -0.556298 71 69 60 -0.871368 -0.235464 -0.430435 0.000000 
-0.132728 0.105810 -0.519470 63 62 56 -0.219037 0.975710 0.003514 0.000000 
-0.094748 0.105146 -0.581722 89 92 88 -0.795890 -0.094576 -0.598009 0.000000 
-0.170126 0.113504 -0.460913 99 91 74 -0.168243 -0.985745 0.001129 0.000000 
-0.175427 0.112314 -0.447555 106 105 101 0.857044 0.089542 0.507404 0.000000 
-0.100865 0.101414 -0.578825 86 81 68 0.130239 -0.930865 0.341363 0.000000 
-0.089941 0.102275 -0.590644 91 86 73 0.612503 -0.639353 0.464831 0.000000 
-0.045045 0.091391 -0.678030 63 65 51 0.428511 -0.882055 0.195849 0.000000 
-0.079033 0.097876 -0.613305 58 57 46 -0.393162 0.888694 -0.235897 0.000000 
-0.058999 0.095279 -0.643494 77 74 59 -0.629338 0.691454 -0.354718 0.000000 
-0.070943 0.101738 -0.624447 84 86 76 -0.674011 -0.664267 -0.323201 0.000000 
-0.048205 0.092750 -0.668925 64 63 48 -0.148759 0.882444 -0.446277 0.000000 
-0.200840 0.116352 -0.402548 106 103 89 0.756225 0.580359 0.302170 0.000000 
-0.105767 0.102787 -0.566844 103 97 82 -0.584826 0.621904 -0.520782 0.000000 
-0.150380 0.107934 -0.502318 47 43 31 0.787928 0.448164 0.422278 0.000000 
-0.132797 0.107910 -0.521664 86 81 65 -0.071325 0.988027 0.136804 0.000000 
-0.077216 0.098343 -0.614000 81 84 70 0.481600 -0.711569 0.511596 0.000000 
-0.075465 0.097020 -0.619934 69 66 53 0.076857 -0.997037 0.003159 0.000000 
-0.090370 0.100800 -0.591903 78 81 72 0.774263 -0.515637 0.366926 0.000000 
-0.134803 0.104876 -0.524130 69 64 49 0.005418 -0.993736 -0.111619 0.000000 
-0.177050 0.110354 -0.452019 71 66 50 -0.100469 0.953802 -0.283140 0.000000 
-0.079186 0.098367 -0.611462 57 56 43 0.374992 -0.859548 0.347214 0.000000 
-0.041728 0.092210 -0.678056 61 64 51 0.296926 -0.902596 0.311698 0.000000 
-0.176320 0.110517 -0.449036 88 90 84 -0.382146 -0.914072 -0.135781 0.000000 
-0.143660 0.108130 -0.505830 90 78 55 -0.201447 -0.971759 -0.122895 0.000000 
-0.082517 0.102586 -0.602210 98 95 80 -0.852769 0.086554 -0.515067 0.000000 
-0.208946 0.116126 -0.388327 107 97 78 -0.914756 0.397072 -0.074536 0.000000 
-0.082780 0.101230 -0.604089 80 84 75 -0.792568 0.443902 -0.418075 0.000000 
-0.116327 0.108260 -0.547899 113 110 101 -0.009683 0.995149 -0.097901 0.000000 
-0.075052 0.097571 -0.625709 86 83 70 -0.539547 -0.803878 -0.250337 0.000000 
-0.202246 0.113604 -0.397999 123 114 99 -0.594756 0.801998 -0.055359 0.000000 
-0.178892 0.111100 -0.452438 66 59 43 0.531052 0.738212 0.415964 0.000000 
-0.110196 0.105816 -0.555543 69 63 47 0.555843 -0.505464 0.659958 0.000000 
-0.061091 0.095120 -0.641812 71 71 58 0.478374 -0.790847 0.381733 0.000000 
-0.195708 0.112707 -0.411727 66 61 46 -0.099610 -0.995026 0.001071 0.000000 
-0.119108 0.106560 -0.538612 104 100 91 -0.469991 0.715782 -0.516492 0.000000 
-0.191479 0.112392 -0.421703 72 68 52 0.610843 0.664105 0.431086 0.000000 
-0.149593 0.106960 -0.489873 101 99 89 0.845156 -0.315961 0.431138 0.000000 
-0.074665 0.101431 -0.616270 72 68 51 -0.824432 -0.017893 -0.565679 0.000000 
-0.174865 0.110752 -0.449659 62 54 38 0.157663 0.970332 0.183299 0.000000 
-0.123642 0.104722 -0.538252 65 59 45 -0.602300 0.669037 -0.435458 0.000000 
-0.196587 0.112866 -0.411240 64 61 47 -0.587924 -0.788456 -0.180783 0.000000 
-0.066224 0.095808 -0.634007 69 68 54 0.119665 -0.986943 0.107817 0.000000 
-0.122207 0.107379 -0.532800 113 113 106 -0.760871 0.058749 -0.646239 0.000000 
-0.077818 0.100922 -0.610103 74 73 59 -0.909489 0.181898 -0.373822 0.000000 
-0.192155 0.112511 -0.419186 80 76 64 -0.742149 -0.629654 -0.229675 0.000000 
-0.199293 0.113738 -0.406961 71 63 44 -0.657030 -0.643790 -0.392232 0.000000 
-0.134946 0.105236 -0.522454 65 66 60 -0.384749 0.903512 -0.188772 0.000000 
-0.172995 0.110042 -0.451635 90 91 87 0.035094 0.990568 -0.132453 0.000000 
-0.174801 0.110704 -0.449771 59 55 40 0.101756 0.985237 0.137670 0.000000 
-0.065793 0.097490 -0.630625 88 91 82 -0.935289 0.204899 -0.288532 0.000000 
-0.164767 0.110239 -0.467005 70 65 50 -0.601260 0.793430 -0.094629 0.000000 
-0.155437 0.110513 -0.489730 75 66 46 -0.188869 -0.972234 -0.138166 0.000000 
-0.165231 0.109899 -0.461970 98 97 88 -0.158462 -0.986627 0.038170 0.000000 
-0.199377 0.114631 -0.408379 64 58 43 -0.632829 -0.713341 -0.301117 0.000000 
-0.156968 0.107349 -0.490876 74 67 52 0.776641 0.611399 0.151723 0.000000 
-0.193614 0.112746 -0.416718 67 61 46 -0.514389 -0.744467 -0.425644 0.000000 
-0.073907 0.101711 -0.617592 66 65 54 -0.843841 -0.177729 -0.506305 0.000000 
-0.054949 0.092927 -0.656644 92 94 85 0.284486 -0.957137 0.054368 0.000000 
-0.155772 0.108000 -0.482888 65 55 39 0.174172 0.984699 0.005692 0.000000 
-0.198907 0.114520 -0.403850 98 92 77 -0.887539 -0.270901 -0.372676 0.000000 
-0.061827 0.097231 -0.638046 87 88 74 -0.926327 0.056984 -0.372386 0.000000 
-0.191794 0.114430 -0.418403 105 100 87 0.531712 0.770902 0.350704 0.000000 
-0.184661 0.112161 -0.430379 80 72 55 -0.659480 0.656191 -0.366743 0.000000 
-0.070845 0.096695 -0.625565 62 63 51 -0.364251 0.919700 -0.146538 0.000000 
-0.115926 0.102503 -0.553576 57 57 44 0.225802 -0.940610 0.253508 0.000000 
-0.135816 0.105050 -0.514122 74 66 46 -0.240990 0.925457 -0.292325 0.000000 
-0.197567 0.113738 -0.410486 61 57 39 0.823869 0.441189 0.355798 0.000000 
-0.076391 0.103286 -0.612023 108 104 89 -0.926218 -0.318167 -0.202213 0.000000 
-0.105618 0.101068 -0.570701 78 75 65 0.132077 0.991134 0.014429 0.000000 
-0.191362 0.113675 -0.424267 65 62 45 0.582978 0.805064 0.109582 0.000000 
-0.120391 0.105999 -0.541800 53 54 45 0.383609 -0.917086 0.108620 0.000000 
-0.208494 0.116323 -0.386594 117 108 92 0.093943 0.985808 0.139131 0.000000 
-0.184527 0.110449 -0.432916 75 74 66 -0.267223 0.811045 -0.520382 0.000000 
-0.188731 0.112059 -0.425006 62 61 48 -0.152916 -0.963239 -0.220878 0.000000 
-0.168751 0.109434 -0.469282 64 58 44 0.599529 0.726259 0.336321 0.000000 
-0.080361 0.099639 -0.607395 67 66 53 -0.693330 0.509556 -0.509556 0.000000 
-0.118678 0.107619 -0.540289 102 100 89 0.726072 0.130244 0.675172 0.000000 
-0.059372 0.094237 -0.649289 64 64 50 0.342264 -0.892279 0.294437 0.000000 
-0.152133 0.109613 -0.491521 93 89 76 0.492803 0.865582 -0.088959 0.000000 
-0.090002 0.101223 -0.591891 80 84 76 -0.869938 0.405364 -0.280870 0.000000 
-0.202778 0.114958 -0.401343 73 65 48 0.589695 0.666539 0.456053 0.000000 
-0.164469 0.112089 -0.470347 91 85 67 0.247838 0.968154 0.035405 0.000000 
-0.050504 0.094826 -0.659964 67 71 61 0.919535 -0.155830 0.360795 0.000000 
-0.170293 0.108098 -0.462207 84 76 58 0.047298 -0.995468 0.082497 0.000000 
-0.181077 0.113317 -0.437986 86 85 79 -0.926037 -0.261117 -0.272532 0.000000 
-0.146369 0.105394 -0.497840 68 61 46 -0.129967 -0.986077 -0.103735 0.000000 
-0.151190 0.106307 -0.489057 72 66 47 -0.206411 -0.978409 -0.010495 0.000000 
-0.177668 0.114167 -0.453355 80 74 60 0.194996 -0.953464 0.229961 0.000000 
-0.119143 0.105739 -0.542273 82 79 67 0.427409 -0.798367 0.424183 0.000000 
-0.138156 0.107882 -0.515943 87 78 60 0.188895 0.978597 0.081651 0.000000 
-0.140014 0.108163 -0.519195 79 71 51 0.667777 -0.738223 -0.095397 0.000000 
-0.095025 0.105744 -0.581852 98 100 100 0.615135 0.594911 0.517387 0.000000 
-0.090343 0.100974 -0.592071 56 53 40 0.844020 -0.433668 0.315536 0.000000 
-0.121260 0.102465 -0.547761 97 104 105 0.543892 -0.815076 0.199579 0.000000 
-0.062938 0.094463 -0.643996 80 78 64 0.060887 0.995218 -0.076385 0.000000 
-0.181258 0.111180 -0.441012 58 55 39 -0.474320 -0.806504 -0.352946 0.000000 
-0.190742 0.113633 -0.419046 104 97 82 0.698191 0.558219 0.448242 0.000000 
-0.113770 0.103134 -0.555185 82 79 63 0.769576 -0.350101 0.534024 0.000000 
-0.189870 0.115337 -0.431205 80 76 62 -0.740803 0.557646 -0.374490 0.000000 
-0.063789 0.098971 -0.636518 80 80 66 0.669709 0.659932 0.340558 0.000000 
-0.205036 0.116285 -0.393112 131 123 108 0.750561 0.597580 0.282058 0.000000 
-0.109579 0.104135 -0.560924 71 71 63 0.604488 -0.506827 0.614590 0.000000 
-0.174592 0.109876 -0.458571 68 64 51 -0.188954 -0.965621 0.178529 0.000000 
-0.090785 0.099506 -0.593476 57 55 46 -0.131743 -0.938496 0.319170 0.000000 
-0.172033 0.111692 -0.465242 64 59 46 -0.889351 -0.067354 -0.452236 0.000000 
-0.107856 0.103723 -0.563916 73 76 68 -0.690187 0.634711 -0.347541 0.000000 
-0.083004 0.102691 -0.601241 81 80 66 -0.841618 -0.023340 -0.539569 0.000000 
-0.195125 0.115992 -0.415910 95 92 80 -0.415229 -0.895112 -0.162356 0.000000 
-0.176442 0.111145 -0.456800 59 53 39 -0.787293 -0.244762 -0.565916 0.000000 
-0.193173 0.112454 -0.417373 81 75 59 -0.529317 -0.785180 -0.321428 0.000000 
-0.140387 0.106055 -0.512089 79 73 57 0.005815 -0.978074 0.208175 0.000000 
-0.181753 0.112480 -0.447278 68 65 50 0.913701 0.312314 -0.260020 0.000000 
-0.090590 0.102436 -0.588140 70 69 57 0.707513 -0.588770 0.390864 0.000000 
-0.164573 0.111435 -0.479575 71 70 60 0.589200 -0.701428 0.401052 0.000000 
-0.205672 0.114195 -0.391661 115 103 89 -0.705813 0.518931 -0.482222 0.000000 
-0.101999 0.106177 -0.569274 75 72 61 0.485823 0.653928 0.579961 0.000000 
-0.205953 0.116865 -0.394821 106 99 85 0.507186 -0.860131 -0.054192 0.000000 
-0.189007 0.113873 -0.421697 88 84 69 -0.712954 -0.605277 -0.354030 0.000000 
-0.045428 0.092954 -0.669749 58 57 43 0.582983 -0.766252 0.270163 0.000000 
-0.150378 0.106896 -0.493504 64 56 40 0.134269 0.975021 0.176934 0.000000 
-0.168534 0.111932 -0.456508 90 80 57 -0.599625 -0.559087 -0.572600 0.000000 
-0.158316 0.108282 -0.480126 58 49 32 -0.040855 -0.964414 0.261221 0.000000 
-0.168452 0.109758 -0.465552 66 64 52 -0.534696 0.775551 -0.335590 0.000000 
-0.186203 0.115481 -0.435663 79 73 59 0.158264 0.987160 -0.021633 0.000000 
-0.194923 0.115975 -0.421330 74 69 57 -0.729769 0.541973 -0.416776 0.000000 
-0.089722 0.099366 -0.595199 53 50 40 -0.387200 0.912785 -0.129998 0.000000 
-0.099970 0.102019 -0.577217 76 78 72 0.520628 -0.577914 0.628460 0.000000 
-0.197662 0.113323 -0.409785 64 57 41 -0.816838 -0.523456 -0.242426 0.000000 
-0.147503 0.106809 -0.490921 86 85 75 -0.763402 0.644430 0.043906 0.000000 
-0.040567 0.091198 -0.681907 81 85 75 -0.379606 0.914696 -0.138675 0.000000 
-0.065192 0.096835 -0.632118 64 64 50 0.438546 -0.681997 0.585284 0.000000 
-0.171221 0.112743 -0.458054 96 89 71 0.456319 0.856545 0.241046 0.000000 
-0.193598 0.113890 -0.418260 60 53 37 0.446731 0.767460 0.459822 0.000000 
-0.051303 0.093287 -0.661049 75 82 75 -0.211431 0.962600 -0.169407 0.000000 
-0.150091 0.106214 -0.499415 79 71 54 0.804990 0.500142 0.319138 0.000000 
-0.048513 0.094059 -0.664553 56 55 42 -0.656645 0.676198 -0.334026 0.000000 
-0.133224 0.103931 -0.528390 113 112 106 -0.982336 0.156253 -0.102958 0.000000 
-0.202581 0.113858 -0.396678 122 113 96 0.775564 -0.148512 0.613551 0.000000 
-0.199190 0.115903 -0.411595 64 62 50 0.749281 -0.172442 0.639407 0.000000 
-0.112380 0.107703 -0.553150 102 98 88 -0.488674 -0.708827 -0.508687 0.000000 
-0.111293 0.107332 -0.553068 71 70 61 0.642168 0.344777 0.684652 0.000000 
-0.165524 0.111709 -0.461378 107 100 87 -0.536965 -0.661527 -0.523499 0.000000 
-0.212400 0.116943 -0.379447 112 105 94 0.634858 0.159093 0.756072 0.000000 
-0.203538 0.113088 -0.397784 133 129 121 0.449707 0.851833 0.268596 0.000000 
-0.188693 0.113283 -0.421386 89 85 73 0.865466 -0.194470 0.461681 0.000000 
-0.148239 0.105783 -0.493398 66 61 47 0.082931 -0.996247 0.024772 0.000000 
-0.128717 0.106361 -0.529159 51 42 27 0.058237 0.982896 0.174711 0.000000 
-0.073603 0.098669 -0.619359 76 76 64 0.628532 -0.598200 0.497096 0.000000 
-0.161610 0.110011 -0.469786 70 62 46 0.403545 0.914262 -0.035724 0.000000 
-0.169277 0.109337 -0.462882 62 55 39 -0.647269 0.590108 -0.482510 0.000000 
-0.151567 0.107621 -0.490662 65 57 40 0.601565 -0.079343 0.794874 0.000000 
-0.206867 0.116786 -0.390704 136 128 120 -0.302665 -0.858831 -0.413284 0.000000 
-0.055506 0.093936 -0.654729 63 63 51 -0.190177 0.977877 -0.087113 0.000000 
-0.175190 0.111258 -0.445165 92 90 73 0.117087 0.848518 -0.516050 0.000000 
-0.129169 0.105192 -0.536601 64 59 44 -0.716497 -0.578139 -0.390367 0.000000 
-0.156101 0.109025 -0.476729 96 95 86 -0.835167 0.426234 -0.347593 0.000000 
-0.066419 0.095350 -0.635949 81 78 63 -0.031247 0.956146 -0.291218 0.000000 
-0.165565 0.112573 -0.474294 79 74 58 0.108604 0.989117 -0.099262 0.000000 
-0.118879 0.106874 -0.540349 102 98 84 0.674155 -0.580476 0.456686 0.000000 
-0.185450 0.115068 -0.435359 107 102 89 0.464780 0.880414 0.094079 0.000000 
-0.079415 0.101767 -0.607725 77 75 59 0.871313 -0.106604 0.479009 0.000000 
-0.123067 0.104200 -0.540223 67 69 63 -0.645524 0.694059 -0.318717 0.000000 
-0.193554 0.114838 -0.423019 51 46 33 0.752057 0.550642 0.362222 0.000000 
-0.155444 0.109117 -0.477353 85 79 64 -0.872056 -0.031291 -0.488406 0.000000 
-0.175384 0.114178 -0.455660 86 80 65 -0.070921 -0.996163 0.051281 0.000000 
-0.209247 0.115032 -0.385713 104 93 76 -0.808325 -0.547575 0.216269 0.000000 
-0.123795 0.103051 -0.539984 95 95 87 -0.154795 0.881027 -0.447024 0.000000 
-0.080117 0.097711 -0.614460 74 66 48 0.512339 0.831600 0.214361 0.000000 
-0.113774 0.104442 -0.554414 70 68 55 -0.713786 0.676945 -0.179598 0.000000 
-0.128750 0.105039 -0.538901 84 79 62 -0.834436 -0.281253 -0.473935 0.000000 
-0.126466 0.106599 -0.527628 101 97 84 0.737239 -0.526128 0.423871 0.000000 
-0.123710 0.106392 -0.532502 74 69 56 0.552852 -0.705592 0.443278 0.000000 
-0.061242 0.094634 -0.653481 79 79 68 -0.725181 -0.656855 -0.206529 0.000000 
-0.165003 0.107704 -0.466461 109 106 96 -0.943235 0.324849 0.069144 0.000000 
-0.162630 0.111665 -0.474637 74 64 43 -0.057935 -0.991706 -0.114733 0.000000 
-0.197600 0.117232 -0.413101 121 121 112 -0.506098 0.862391 0.012146 0.000000 
-0.071363 0.096038 -0.625797 79 84 76 -0.120164 0.986299 -0.113026 0.000000 
-0.186291 0.111269 -0.429542 72 70 58 -0.308805 -0.934725 -0.175867 0.000000 
-0.124012 0.105505 -0.536911 62 52 36 0.174639 -0.939198 -0.295648 0.000000 
-0.133503 0.105753 -0.521195 48 40 24 -0.385351 0.922507 -0.022057 0.000000 
-0.044038 0.089445 -0.684782 68 71 62 -0.198633 0.928362 -0.314150 0.000000 
-0.197961 0.116402 -0.408789 85 80 65 0.588334 0.790999 0.167879 0.000000 
-0.171219 0.111165 -0.466448 55 53 41 -0.840299 -0.250400 -0.480829 0.000000 
-0.090345 0.099686 -0.593244 68 71 64 0.356535 -0.859696 0.365795 0.000000 
-0.074257 0.098843 -0.618235 67 66 52 0.644775 -0.550500 0.530298 0.000000 
-0.165480 0.109001 -0.470705 66 60 45 -0.602936 0.796887 -0.037947 0.000000 
-0.080094 0.099263 -0.615518 62 61 49 0.837890 0.410299 0.359994 0.000000 
-0.137845 0.107691 -0.513153 82 74 57 -0.125993 -0.976760 -0.173397 0.000000 
-0.157290 0.109046 -0.473823 101 95 81 0.662963 -0.682319 0.308092 0.000000 
-0.155769 0.107415 -0.492102 62 55 38 -0.348596 -0.927294 -0.136407 0.000000 
-0.158809 0.110774 -0.482065 86 78 63 0.452084 0.888961 -0.073274 0.000000 
-0.060252 0.095496 -0.638998 89 82 66 0.607906 -0.380559 0.696868 0.000000 
-0.175595 0.114335 -0.452055 110 107 100 0.268894 0.945907 0.181538 0.000000 
-0.141197 0.105759 -0.508983 87 77 57 0.007529 0.994956 0.100033 0.000000 
-0.173752 0.112813 -0.462315 66 62 48 -0.857732 -0.083371 -0.507291 0.000000 
-0.156848 0.108130 -0.479483 62 54 37 0.200577 0.979424 -0.022286 0.000000 
-0.138848 0.106563 -0.508119 89 80 63 -0.703010 -0.086232 -0.705933 0.000000 
-0.161036 0.111436 -0.472902 88 79 52 -0.508313 -0.841191 -0.184432 0.000000 
-0.173049 0.111379 -0.450274 102 102 99 0.864775 -0.269007 0.424028 0.000000 
-0.199727 0.113334 -0.402275 110 104 90 0.311648 -0.923558 0.223419 0.000000 
-0.142305 0.108693 -0.513373 84 77 59 0.460408 0.887260 0.028188 0.000000 
-0.157926 0.109203 -0.472932 67 63 51 0.493585 -0.789415 0.364964 0.000000 
-0.185224 0.113095 -0.426225 105 107 99 -0.894185 -0.381538 -0.234226 0.000000 
-0.069871 0.097165 -0.625427 80 84 75 0.329985 -0.911458 0.245672 0.000000 
-0.136579 0.108187 -0.516668 115 106 86 -0.017252 -0.999579 0.023340 0.000000 
-0.137479 0.105530 -0.510720 92 92 87 0.370408 -0.927983 0.040575 0.000000 
-0.111297 0.107685 -0.553492 114 116 114 0.738833 0.497514 0.454539 0.000000 
-0.150576 0.108665 -0.492763 96 87 67 -0.435151 -0.900357 0.001307 0.000000 
-0.157438 0.108860 -0.475173 68 62 51 -0.104289 0.949158 -0.297024 0.000000 
-0.167995 0.111066 -0.456751 112 107 97 -0.659992 0.035331 -0.750441 0.000000 
-0.133774 0.107890 -0.517750 96 87 70 0.281303 0.910956 0.301709 0.000000 
-0.171821 0.112397 -0.452092 102 97 86 0.768105 0.521272 0.371873 0.000000 
-0.163368 0.111416 -0.462702 100 95 82 -0.814824 -0.419371 -0.400237 0.000000 
-0.182737 0.111942 -0.434983 70 64 48 -0.825037 0.449590 -0.342319 0.000000 
-0.111478 0.107704 -0.553386 114 114 112 -0.495091 -0.803925 -0.329530 0.000000 
-0.196437 0.114383 -0.409722 89 82 63 0.737360 0.506419 0.447035 0.000000 
-0.148737 0.106301 -0.491135 75 68 51 0.908327 -0.326179 0.261820 0.000000 
-0.200409 0.116774 -0.404905 95 91 76 -0.286496 -0.930054 -0.230044 0.000000 
-0.155195 0.111383 -0.492715 114 112 103 0.095554 0.987389 -0.126225 0.000000 
-0.084126 0.098231 -0.604922 69 63 48 -0.249475 -0.963358 0.098511 0.000000 
-0.112194 0.105183 -0.552541 78 78 68 -0.192239 0.641309 0.742811 0.000000 
-0.118516 0.103499 -0.552134 69 66 52 0.627730 0.627730 0.460336 0.000000 
-0.173497 0.113526 -0.452172 91 84 70 -0.151880 -0.979192 0.134593 0.000000 
-0.199045 0.113259 -0.403335 115 112 101 -0.528363 0.823759 -0.205559 0.000000 
-0.070318 0.095896 -0.628578 76 83 78 0.171801 -0.928841 0.328237 0.000000 
-0.154443 0.107093 -0.495891 101 100 99 0.443399 0.798118 0.407927 0.000000 
-0.179920 0.110561 -0.442039 64 63 54 0.236494 0.967475 0.089792 0.000000 
-0.186758 0.112718 -0.431313 57 51 34 0.640524 0.714000 0.282725 0.000000 
-0.201422 0.116918 -0.401638 100 95 79 -0.617373 -0.714597 -0.328941 0.000000 
-0.151938 0.109573 -0.500609 68 60 47 0.790322 -0.375041 0.484495 0.000000 
-0.084055 0.098758 -0.604182 75 77 68 0.346403 -0.820928 0.453962 0.000000 
-0.055820 0.092846 -0.658672 81 89 83 0.225950 -0.946250 0.231427 0.000000 
-0.063955 0.095192 -0.638742 73 71 57 -0.430960 0.875341 -0.219208 0.000000 
-0.164232 0.108438 -0.476242 71 65 48 0.126747 0.645666 0.753028 0.000000 
-0.208951 0.115554 -0.390139 105 96 78 -0.850221 -0.218974 -0.478721 0.000000 
-0.049994 0.093334 -0.663736 71 77 71 0.444371 -0.892870 0.072915 0.000000 
-0.205915 0.115532 -0.395924 91 82 61 0.842409 0.105121 0.528486 0.000000 
-0.059265 0.094049 -0.649934 65 67 56 0.305351 -0.930124 0.204036 0.000000 
-0.075866 0.099446 -0.615354 71 71 57 -0.856721 0.426054 -0.290701 0.000000 
-0.158602 0.109841 -0.471636 85 81 67 0.807333 0.034980 0.589059 0.000000 
-0.199542 0.115693 -0.404291 89 83 67 -0.714473 -0.484643 -0.504628 0.000000 
-0.175741 0.114281 -0.448312 91 85 74 0.499725 0.866099 0.012123 0.000000 
-0.193468 0.112138 -0.416446 105 107 102 -0.224720 -0.968709 -0.105377 0.000000 
-0.128192 0.107733 -0.525456 78 74 62 -0.610296 -0.492608 -0.620384 0.000000 
-0.181765 0.113901 -0.447627 73 63 40 0.637023 -0.643676 0.424127 0.000000 
-0.115133 0.103883 -0.553256 68 68 59 -0.738007 0.265048 -0.620561 0.000000 
-0.176353 0.113693 -0.451104 80 69 50 -0.116397 -0.985178 -0.125997 0.000000 
-0.094530 0.103433 -0.582085 90 83 71 0.618193 -0.454011 0.641647 0.000000 
-0.044072 0.093444 -0.671515 73 75 62 0.850393 -0.331140 0.408873 0.000000 
-0.128853 0.108099 -0.527571 83 76 59 -0.053908 0.995656 -0.075912 0.000000 
-0.069720 0.101244 -0.626686 76 77 69 -0.703840 -0.629067 -0.329976 0.000000 
-0.062752 0.096514 -0.636519 80 84 73 0.586989 -0.683435 0.434006 0.000000 
-0.152369 0.109267 -0.500174 67 61 47 -0.815855 0.189206 -0.546426 0.000000 
-0.152410 0.109914 -0.491878 77 68 46 0.545703 0.834855 -0.072288 0.000000 
-0.162737 0.110030 -0.466972 60 52 35 0.063624 0.989067 -0.133032 0.000000 
-0.180272 0.113163 -0.440039 101 95 79 0.875469 0.199980 0.439957 0.000000 
-0.050143 0.095876 -0.661286 71 74 64 -0.939463 -0.021611 -0.341969 0.000000 
-0.154660 0.107479 -0.488991 72 64 50 0.016876 0.988935 -0.147384 0.000000 
-0.152067 0.107148 -0.486014 64 58 43 0.139504 0.739521 -0.658519 0.000000 
-0.134831 0.106486 -0.526779 71 66 50 -0.834883 -0.440154 -0.330507 0.000000 
-0.165751 0.112232 -0.468133 79 68 49 -0.183606 -0.960301 -0.210025 0.000000 
-0.171965 0.109345 -0.463678 62 58 45 -0.784121 -0.459433 -0.417224 0.000000 
-0.162227 0.111550 -0.481561 72 62 42 -0.248638 0.911673 -0.327156 0.000000 
-0.201456 0.115895 -0.401001 109 103 88 0.744453 0.477044 0.467140 0.000000 
-0.153711 0.107477 -0.480997 82 75 60 0.518447 -0.855100 0.004040 0.000000 
-0.173227 0.114193 -0.458157 101 93 74 0.059697 -0.998093 -0.015710 0.000000 
-0.136871 0.104977 -0.521375 69 65 52 -0.127469 -0.978910 -0.159645 0.000000 
-0.128914 0.106134 -0.527307 37 29 14 0.437124 -0.892521 0.111038 0.000000 
-0.157370 0.107984 -0.486749 74 68 52 0.096650 0.994276 0.045548 0.000000 
-0.101746 0.103995 -0.572066 69 66 52 0.809620 -0.472411 0.348343 0.000000 
-0.164700 0.112104 -0.462560 79 75 59 -0.450274 -0.866143 -0.216910 0.000000 
-0.149225 0.108093 -0.492431 99 90 70 0.440382 0.864118 0.243648 0.000000 
-0.105260 0.104018 -0.566345 66 69 63 -0.568316 0.474435 -0.672256 0.000000 
-0.176269 0.113465 -0.444249 100 95 78 0.801342 -0.524257 -0.288105 0.000000 
-0.161625 0.109128 -0.473802 62 60 52 -0.267420 0.955070 0.127782 0.000000 
-0.062784 0.094857 -0.641029 60 59 47 -0.384661 0.848746 -0.362858 0.000000 
-0.208648 0.116543 -0.388039 104 95 75 -0.911858 0.408947 0.035733 0.000000 
-0.172991 0.110880 -0.449961 86 81 67 -0.701867 0.545155 -0.458464 0.000000 
-0.061596 0.098767 -0.639949 85 85 75 -0.715372 -0.642082 -0.275633 0.000000 
-0.060231 0.095125 -0.656261 82 81 71 0.570673 0.797107 0.197364 0.000000 
-0.164300 0.111939 -0.474795 94 86 67 0.243440 0.956466 0.160963 0.000000 
-0.070831 0.098842 -0.622779 71 72 60 -0.700287 0.362444 -0.615006 0.000000 
-0.145069 0.107292 -0.510524 56 49 35 0.723504 0.579131 0.375697 0.000000 
-0.177240 0.114943 -0.448688 116 115 111 0.462456 -0.850126 -0.251833 0.000000 
-0.065352 0.100391 -0.632329 93 93 80 0.788411 0.482076 0.382113 0.000000 
-0.142441 0.108565 -0.511395 88 76 54 0.293463 0.895286 0.335174 0.000000 
-0.160080 0.108137 -0.477623 72 67 51 0.039765 -0.867978 0.495008 0.000000 
-0.074472 0.101244 -0.615915 71 69 55 -0.829144 0.057716 -0.556047 0.000000 
-0.097748 0.103986 -0.577005 56 53 43 -0.713280 0.666457 -0.216950 0.000000 
-0.140883 0.105480 -0.514526 72 65 49 0.425216 0.904742 0.025169 0.000000 
-0.178011 0.110768 -0.452375 58 54 40 -0.110311 -0.959055 0.260853 0.000000 
-0.201270 0.114819 -0.404252 62 55 41 0.662440 0.700566 0.265294 0.000000 
-0.130380 0.106324 -0.521888 82 80 69 -0.718949 0.570882 -0.396492 0.000000 
-0.118527 0.103145 -0.547415 68 64 49 -0.592921 0.639951 -0.488782 0.000000 
-0.201494 0.115284 -0.399153 100 93 77 0.796654 0.499705 0.340055 0.000000 
-0.090640 0.099343 -0.594010 64 59 46 0.038170 0.986627 -0.158462 0.000000 
-0.156732 0.108096 -0.479545 58 52 37 -0.275654 -0.959071 0.064785 0.000000 
-0.144852 0.108475 -0.507410 102 91 66 0.371222 0.921891 0.110956 0.000000 
-0.060597 0.097239 -0.640442 86 88 73 -0.877979 -0.322987 -0.353315 0.000000 
-0.154946 0.109241 -0.485541 99 91 75 -0.661781 -0.591414 -0.460734 0.000000 
-0.143105 0.107206 -0.503036 77 71 55 -0.487565 -0.855091 -0.176353 0.000000 
-0.190736 0.112294 -0.420649 80 75 59 -0.474089 0.880452 0.006640 0.000000 
-0.173016 0.113299 -0.451670 95 88 73 0.435656 0.894975 0.096039 0.000000 
-0.090313 0.104723 -0.589122 98 100 95 0.722470 0.550532 0.418272 0.000000 
-0.174994 0.110733 -0.450174 73 66 47 -0.186927 -0.976722 -0.105224 0.000000 
-0.068444 0.095590 -0.633396 70 70 57 0.151930 0.979515 -0.132167 0.000000 
-0.172457 0.112972 -0.452848 109 100 84 -0.399442 -0.864692 -0.304555 0.000000 
-0.188294 0.113879 -0.423883 96 97 90 -0.686399 -0.630701 -0.362039 0.000000 
-0.191924 0.114143 -0.425876 55 54 42 -0.702723 -0.708495 0.064933 0.000000 
-0.090431 0.100028 -0.592892 49 46 34 0.626041 -0.626041 0.464915 0.000000 
-0.172882 0.110593 -0.453367 56 48 32 0.203278 0.948178 0.244207 0.000000 
-0.195106 0.116391 -0.417534 73 67 52 -0.028458 0.998149 0.053755 0.000000 
-0.057355 0.094327 -0.649113 75 78 70 -0.174836 0.971167 -0.162074 0.000000 
-0.159130 0.109333 -0.473379 72 64 46 0.713854 0.572072 -0.403913 0.000000 
-0.078403 0.097286 -0.614509 71 64 47 0.097730 -0.935802 0.338709 0.000000 
-0.199628 0.116843 -0.409194 81 76 63 -0.295361 0.955289 -0.013594 0.000000 
-0.191314 0.116217 -0.423987 79 75 62 0.397315 0.902207 0.167819 0.000000 
-0.080496 0.097136 -0.612731 90 98 93 -0.114150 -0.990455 0.077253 0.000000 
-0.153606 0.110261 -0.491503 84 72 55 0.512009 0.840412 0.177636 0.000000 
-0.158563 0.108054 -0.481082 67 60 43 0.143241 0.986112 0.084050 0.000000 
-0.173753 0.110936 -0.466173 96 89 67 0.752551 0.622213 0.215680 0.000000 
-0.152891 0.107307 -0.486985 59 53 38 -0.293416 -0.871128 -0.393756 0.000000 
-0.144936 0.105399 -0.502283 74 68 53 0.217876 0.951347 0.217876 0.000000 
-0.152473 0.106793 -0.495998 83 78 72 -0.159982 -0.978493 0.130218 0.000000 
-0.202537 0.116582 -0.398723 105 98 84 -0.688412 -0.625979 -0.366387 0.000000 
-0.104091 0.102430 -0.573796 74 74 63 0.398053 0.813690 0.423630 0.000000 
-0.109269 0.102576 -0.562106 84 81 68 0.749700 -0.469592 0.466297 0.000000 
-0.179171 0.111077 -0.450538 68 68 59 -0.083658 -0.996481 0.005295 0.000000 
-0.134228 0.107562 -0.517549 90 82 65 0.400567 0.900198 0.170851 0.000000 
-0.205748 0.114455 -0.390878 116 107 94 0.403761 -0.308577 0.861253 0.000000 
-0.073313 0.096855 -0.623067 68 68 56 -0.125284 0.902324 -0.412451 0.000000 
-0.053396 0.091981 -0.667242 72 73 65 0.210703 0.974656 -0.075163 0.000000 
-0.131974 0.107973 -0.520705 109 103 89 -0.158565 -0.955390 -0.249174 0.000000 
-0.133952 0.106024 -0.515722 77 70 55 -0.789875 0.386053 -0.476509 0.000000 
-0.070260 0.097210 -0.624165 71 70 56 0.435495 -0.747738 0.501231 0.000000 
-0.149837 0.109264 -0.497501 76 65 41 -0.346980 -0.934587 -0.078436 0.000000 
-0.168536 0.108669 -0.468736 70 64 48 -0.370826 -0.903071 -0.216679 0.000000 
-0.044904 0.092009 -0.672652 79 82 70 0.455876 -0.888618 0.050350 0.000000 
-0.110769 0.102451 -0.563775 75 68 54 0.705175 0.693095 0.149491 0.000000 
-0.089334 0.099362 -0.595728 54 52 42 -0.349380 0.874212 -0.337174 0.000000 
-0.187440 0.110771 -0.427019 111 110 105 -0.168630 0.969303 -0.178928 0.000000 
-0.185153 0.111148 -0.432995 57 52 38 0.492897 0.802353 0.336574 0.000000 
-0.198644 0.113645 -0.404901 117 114 102 0.831107 -0.156111 0.533752 0.000000 
-0.142275 0.107946 -0.507218 90 78 57 -0.362158 -0.901730 -0.236063 0.000000 
-0.142740 0.109090 -0.512845 79 69 50 -0.338865 -0.936862 -0.086377 0.000000 
-0.077894 0.096361 -0.618586 87 94 92 0.427024 0.897450 0.110606 0.000000 
-0.071223 0.101471 -0.621359 91 91 79 0.834092 0.493082 0.247309 0.000000 
-0.163826 0.109385 -0.472774 72 66 49 -0.033944 0.878477 -0.476577 0.000000 
-0.054748 0.093908 -0.657873 69 72 60 -0.141768 0.980049 -0.139303 0.000000 
-0.081093 0.098253 -0.608899 60 55 40 -0.412197 0.868505 -0.275305 0.000000 
-0.140404 0.105965 -0.505930 109 103 91 0.972696 0.138232 0.186423 0.000000 
-0.148400 0.108685 -0.491649 107 104 92 -0.417323 -0.908750 -0.003900 0.000000 
-0.152396 0.110403 -0.495452 91 82 67 -0.378548 -0.840345 -0.387972 0.000000 
-0.039778 0.094109 -0.678981 61 63 53 0.820027 -0.020673 0.571952 0.000000 
-0.186575 0.112899 -0.433868 67 64 44 0.180989 0.983333 0.017292 0.000000 
-0.193935 0.113218 -0.417141 62 55 39 0.582768 0.592903 0.555741 0.000000 
-0.124178 0.103593 -0.540094 69 63 48 -0.099115 -0.961541 0.256154 0.000000 
-0.154990 0.110744 -0.492752 83 70 53 0.099519 0.984402 -0.145082 0.000000 
-0.155021 0.107582 -0.488016 70 64 46 -0.127151 -0.991779 0.014374 0.000000 
-0.062567 0.094589 -0.642946 81 71 54 0.027678 -0.993091 0.114034 0.000000 
-0.208703 0.115189 -0.386466 117 111 103 -0.291454 0.121106 0.948888 0.000000 
-0.114535 0.102604 -0.555239 68 68 62 0.584375 -0.641633 0.496803 0.000000 
-0.187116 0.112794 -0.431060 62 57 40 0.514758 0.795245 0.320329 0.000000 
-0.069466 0.097338 -0.626442 69 70 57 0.409240 -0.902028 0.137358 0.000000 
-0.102062 0.105461 -0.568138 91 90 83 0.811304 0.134478 0.568947 0.000000 
-0.101047 0.105146 -0.570912 64 66 61 0.825224 -0.359551 0.435579 0.000000 
-0.139409 0.108393 -0.516596 105 94 71 0.260877 0.965365 -0.003607 0.000000 
-0.196743 0.115041 -0.414071 59 52 36 -0.446678 -0.889154 -0.099417 0.000000 
-0.081366 0.097780 -0.609924 75 67 52 0.047340 -0.998346 0.032612 0.000000 
-0.170298 0.109239 -0.465917 60 58 42 -0.618097 -0.661414 -0.424838 0.000000 
-0.072903 0.097167 -0.622125 70 68 56 -0.501102 0.762263 -0.409696 0.000000 
-0.158142 0.110394 -0.479289 76 67 51 0.603838 0.717770 0.346678 0.000000 
-0.044962 0.091563 -0.675724 79 85 79 -0.475681 0.802412 -0.360365 0.000000 
-0.186876 0.112858 -0.431515 60 57 41 -0.646306 -0.710139 -0.279268 0.000000 
-0.198400 0.114616 -0.405907 107 105 94 0.920210 0.185743 0.344547 0.000000 
-0.105560 0.100881 -0.571618 100 106 108 0.423938 0.820884 0.382656 0.000000 
-0.048937 0.094571 -0.663306 60 60 47 -0.893789 0.231178 -0.384315 0.000000 
-0.166520 0.109217 -0.473319 58 51 35 -0.539564 -0.814696 -0.212463 0.000000 
-0.190141 0.115142 -0.432995 103 99 82 -0.660152 0.606672 -0.442887 0.000000 
-0.150987 0.106903 -0.497168 73 65 48 -0.084554 -0.984874 -0.151244 0.000000 
-0.114137 0.106053 -0.556817 112 111 105 0.132987 -0.982155 -0.132987 0.000000 
-0.179154 0.115543 -0.448098 113 111 103 -0.204498 -0.788776 0.579666 0.000000 
-0.116739 0.106186 -0.546250 48 41 28 -0.540711 0.829483 -0.139966 0.000000 
-0.102324 0.100255 -0.574353 84 81 71 -0.242715 0.950522 -0.193901 0.000000 
-0.112581 0.101975 -0.560204 68 65 54 -0.229619 -0.965941 -0.119300 0.000000 
-0.160283 0.111308 -0.482111 73 63 46 -0.041339 0.993250 -0.108375 0.000000 
-0.146010 0.105856 -0.508411 55 48 36 0.468947 0.854961 0.221656 0.000000 
-0.145521 0.106796 -0.509129 55 47 32 0.678512 0.581819 0.448451 0.000000 
-0.171535 0.110243 -0.455955 84 84 76 -0.141991 -0.989393 -0.030670 0.000000 
-0.104259 0.103401 -0.568800 67 70 60 -0.602306 0.639216 -0.478154 0.000000 
-0.148152 0.109737 -0.504143 85 72 53 -0.283592 -0.958812 0.015960 0.000000 
-0.169295 0.112857 -0.466510 81 72 52 0.148938 0.988815 0.007839 0.000000 
-0.118728 0.105411 -0.542972 59 56 42 0.632216 -0.733118 0.250679 0.000000 
-0.126686 0.107942 -0.532720 104 98 82 -0.294187 0.900302 -0.320797 0.000000 
-0.093787 0.099988 -0.586376 60 58 46 0.517133 -0.758570 0.396414 0.000000 
-0.129750 0.107782 -0.533866 80 76 63 -0.333591 0.941064 -0.055815 0.000000 
-0.066178 0.094946 -0.635491 84 88 79 -0.129749 0.958045 -0.255566 0.000000 
-0.187293 0.115150 -0.435295 68 63 48 0.328631 -0.941021 0.080508 0.000000 
-0.114355 0.103434 -0.554733 69 69 62 -0.723237 0.527947 -0.445196 0.000000 
-0.147994 0.109410 -0.506148 69 63 49 -0.214263 0.948488 -0.233369 0.000000 
-0.151154 0.109283 -0.496247 75 66 49 0.637988 0.726642 0.254879 0.000000 
-0.194389 0.114328 -0.413648 83 78 60 -0.412627 -0.484388 -0.771432 0.000000 
-0.095797 0.099980 -0.586910 50 47 40 -0.078128 -0.982014 -0.171883 0.000000 
-0.170191 0.112555 -0.469709 88 82 68 0.678864 -0.609152 0.409974 0.000000 
-0.175117 0.113000 -0.448113 75 69 47 -0.840438 -0.473421 -0.263697 0.000000 
-0.067685 0.098321 -0.625534 101 91 74 0.895242 -0.422714 0.140905 0.000000 
-0.155836 0.107415 -0.491174 68 58 42 0.017748 0.976117 0.216520 0.000000 
-0.141555 0.105534 -0.505999 60 49 40 -0.055501 0.983667 -0.171227 0.000000 
-0.056568 0.094784 -0.648519 63 63 52 -0.516349 0.812743 -0.269874 0.000000 
-0.071941 0.098926 -0.620979 85 88 75 0.747021 -0.479875 0.460086 0.000000 
-0.071683 0.100244 -0.620631 76 80 70 -0.841310 0.108230 -0.529607 0.000000 
-0.141496 0.107254 -0.505893 92 82 63 0.450831 0.883057 0.130240 0.000000 
-0.120302 0.105579 -0.542045 54 55 46 -0.296049 0.955037 0.016103 0.000000 
-0.148207 0.106813 -0.503918 60 52 40 -0.474963 -0.840792 -0.259769 0.000000 
-0.092669 0.100716 -0.587668 61 56 41 0.736611 -0.563483 0.374022 0.000000 
-0.101801 0.106584 -0.570051 111 115 115 -0.620150 -0.660052 -0.423963 0.000000 
-0.103556 0.101828 -0.574613 76 76 65 0.494045 0.853887 0.163698 0.000000 
-0.127822 0.107485 -0.533514 79 73 57 0.303308 0.932289 -0.197081 0.000000 
-0.072959 0.097241 -0.622768 73 71 57 0.470964 -0.827708 0.305110 0.000000 
-0.049058 0.093729 -0.665402 59 59 47 -0.328371 0.882213 -0.337450 0.000000 
-0.152990 0.109711 -0.482838 111 107 95 0.119691 0.992205 0.034677 0.000000 
-0.052000 0.094912 -0.656808 69 75 68 -0.835283 0.210716 -0.507840 0.000000 
-0.147607 0.108904 -0.502984 75 66 49 0.506305 0.843841 0.177729 0.000000 
-0.089452 0.098931 -0.593537 88 87 78 -0.237462 0.934392 -0.265564 0.000000 
-0.199372 0.114054 -0.407147 63 58 42 0.707424 0.561632 0.429093 0.000000 
-0.129564 0.106783 -0.529761 72 68 52 0.714195 0.677491 0.175872 0.000000 
-0.102664 0.101610 -0.572479 90 91 82 0.585753 -0.679206 0.442235 0.000000 
-0.118794 0.103199 -0.547752 71 69 57 0.560744 -0.725185 0.399592 0.000000 
-0.049602 0.090669 -0.674539 83 91 88 0.026698 0.942066 -0.334363 0.000000 
-0.152897 0.108294 -0.484314 77 70 56 0.213517 0.443458 0.870492 0.000000 
-0.141991 0.107626 -0.507194 98 87 67 -0.506809 -0.786761 -0.352353 0.000000 
-0.179541 0.114433 -0.443301 81 77 60 0.455101 0.890415 -0.006596 0.000000 
-0.109673 0.107297 -0.557299 68 66 57 -0.484437 -0.854099 -0.189303 0.000000 
-0.108689 0.106968 -0.557374 85 82 71 -0.741175 -0.503471 -0.444045 0.000000 
-0.170567 0.113108 -0.458386 87 77 54 -0.344403 -0.817363 -0.461850 0.000000 
-0.140903 0.106449 -0.512108 76 70 53 -0.359795 0.900223 -0.245248 0.000000 
-0.173370 0.113634 -0.456412 87 77 56 -0.060887 -0.995218 -0.076385 0.000000 
-0.197734 0.115286 -0.413388 55 54 41 -0.547575 -0.808325 -0.216269 0.000000 
-0.078195 0.097904 -0.614186 64 65 55 0.206930 -0.804727 0.556412 0.000000 
-0.163410 0.111447 -0.469849 76 70 53 0.514097 0.857723 0.004027 0.000000 
-0.148398 0.105903 -0.491800 93 91 83 -0.730715 0.505369 -0.458975 0.000000 
-0.139284 0.106363 -0.522267 83 78 61 0.796307 0.244658 0.553207 0.000000 
-0.166939 0.109465 -0.472053 58 54 40 0.478472 0.754703 0.448875 0.000000 
-0.105880 0.106927 -0.562524 90 88 80 0.708393 0.471707 0.525045 0.000000 
-0.081071 0.101309 -0.605961 77 81 71 -0.605402 0.474595 -0.638943 0.000000 
-0.164352 0.111696 -0.463627 96 89 74 -0.315704 -0.944470 -0.091145 0.000000 
-0.192675 0.113481 -0.415112 96 90 76 0.969034 0.235711 0.073582 0.000000 
-0.141773 0.106782 -0.515276 52 49 33 0.691702 0.656231 0.301511 0.000000 
-0.195423 0.116283 -0.415154 77 73 60 -0.466869 -0.883957 -0.025563 0.000000 
-0.158895 0.110325 -0.472865 82 78 65 0.049538 -0.953916 -0.295955 0.000000 
-0.153832 0.107278 -0.496695 66 63 56 0.401852 0.842794 0.358070 0.000000 
-0.171803 0.113617 -0.454404 107 103 92 -0.316806 -0.757439 -0.570894 0.000000 
-0.155214 0.110589 -0.493693 88 82 70 0.241318 -0.905308 0.349546 0.000000 
-0.165446 0.108230 -0.473045 75 68 51 0.992054 -0.101603 0.074204 0.000000 
-0.137971 0.106436 -0.521494 52 49 35 -0.711215 -0.589667 -0.382709 0.000000 
-0.089048 0.104435 -0.592179 85 82 71 0.741434 0.497042 0.450805 0.000000 
-0.122686 0.106784 -0.541196 71 66 52 -0.202839 -0.978608 0.034400 0.000000 
-0.086328 0.099164 -0.599630 48 45 34 -0.740101 0.405333 -0.536615 0.000000 
-0.180243 0.112451 -0.444254 64 59 41 0.405524 0.883834 0.233213 0.000000 
-0.184386 0.113549 -0.431159 83 76 58 0.654045 0.600517 0.460006 0.000000 
-0.118012 0.103144 -0.548154 63 60 48 0.561632 -0.707424 0.429093 0.000000 
-0.120302 0.105579 -0.542045 54 55 46 -0.296049 0.955037 0.016103 0.000000 
-0.112439 0.104015 -0.561244 70 67 55 0.773638 0.061491 0.630637 0.000000 
-0.124986 0.105903 -0.534760 61 58 46 0.399561 -0.859287 0.319340 0.000000 
-0.121908 0.108403 -0.535820 123 124 121 -0.620166 -0.745769 -0.243356 0.000000 
-0.049100 0.094177 -0.663069 56 55 42 0.722404 -0.619433 0.307303 0.000000 
-0.188197 0.114795 -0.427978 78 72 55 0.614826 0.750057 0.243729 0.000000 
-0.134949 0.108281 -0.524481 78 67 43 -0.132944 -0.981834 -0.135383 0.000000 
-0.169333 0.113255 -0.455723 102 94 72 0.643815 0.761920 -0.070575 0.000000 
-0.156644 0.110446 -0.492874 81 76 59 0.515628 -0.721216 0.462573 0.000000 
-0.182939 0.113922 -0.435583 80 73 55 0.356225 0.910032 0.212004 0.000000 
-0.140534 0.105165 -0.505570 110 106 95 -0.607962 0.783364 -0.129322 0.000000 
-0.165642 0.113241 -0.472953 73 65 40 -0.206846 -0.956831 0.204177 0.000000 
-0.170057 0.111515 -0.454348 91 86 74 -0.828223 0.118318 -0.547766 0.000000 
-0.177914 0.111513 -0.450722 56 49 32 -0.075642 0.826358 -0.558042 0.000000 
-0.127575 0.104980 -0.534262 59 61 51 -0.688818 0.704091 -0.172586 0.000000 
-0.162915 0.111824 -0.477131 72 60 41 0.121051 0.990313 0.068019 0.000000 
-0.083862 0.103176 -0.599233 96 91 78 0.833818 -0.075285 0.546882 0.000000 
-0.123847 0.108758 -0.530914 122 116 105 0.619501 0.682278 0.388221 0.000000 
-0.080084 0.102214 -0.607060 70 72 65 -0.839243 0.102206 -0.534064 0.000000 
-0.148558 0.108009 -0.493080 104 97 82 -0.454035 -0.890760 0.019972 0.000000 
-0.174345 0.112801 -0.461616 84 77 55 -0.809358 0.427918 -0.402275 0.000000 
-0.098429 0.104574 -0.575701 48 45 34 -0.587260 0.590645 -0.553412 0.000000 
-0.191018 0.111781 -0.417835 95 89 70 -0.519402 0.808133 -0.277747 0.000000 
-0.143968 0.108508 -0.508637 85 74 52 0.231309 0.955989 0.180501 0.000000 
-0.173309 0.110162 -0.457810 67 67 60 -0.482669 0.749537 -0.453017 0.000000 
-0.198963 0.113883 -0.402990 106 99 85 -0.928964 0.064935 -0.364430 0.000000 
-0.157563 0.108191 -0.487897 67 60 45 -0.226196 -0.959019 0.170639 0.000000 
-0.093033 0.102595 -0.585438 74 77 70 0.600799 -0.566951 0.563566 0.000000 
-0.182925 0.113504 -0.433633 101 102 95 0.870936 0.344395 0.350517 0.000000 
-0.143541 0.105310 -0.503621 76 66 48 -0.107275 -0.990851 -0.081898 0.000000 
-0.125297 0.106849 -0.538497 77 72 58 0.449634 0.845188 0.288940 0.000000 
-0.058148 0.094131 -0.650818 67 68 55 -0.235088 0.967036 -0.097847 0.000000 
-0.162859 0.109995 -0.466310 60 55 41 0.140167 -0.978686 0.150090 0.000000 
-0.194317 0.116487 -0.416975 119 116 106 -0.506118 -0.856836 -0.098372 0.000000 
-0.145054 0.108877 -0.509043 98 89 71 0.362587 0.914287 0.180582 0.000000 
-0.063361 0.094490 -0.640879 69 71 64 -0.464504 0.847758 -0.256014 0.000000 
-0.198543 0.113270 -0.405070 122 115 99 -0.808214 0.484294 -0.335036 0.000000 
-0.137856 0.105612 -0.511978 58 52 38 -0.257324 -0.956718 0.135920 0.000000 
-0.156103 0.110735 -0.490703 74 63 46 0.132860 0.973038 0.188534 0.000000 
-0.141578 0.105339 -0.508654 86 86 81 0.146745 0.987926 0.049685 0.000000 
-0.137082 0.105435 -0.511864 70 70 64 0.101515 -0.947916 0.301909 0.000000 
-0.104047 0.101997 -0.570343 60 56 44 -0.594152 0.567068 -0.570454 0.000000 
-0.172441 0.112888 -0.452392 105 97 82 0.516512 0.836899 0.181153 0.000000 
-0.178074 0.112554 -0.448185 68 61 43 -0.829793 0.534822 0.159404 0.000000 
-0.102744 0.106039 -0.566754 86 84 73 0.809423 0.307675 0.500170 0.000000 
-0.195718 0.113835 -0.413721 63 56 39 -0.843425 -0.431846 -0.319597 0.000000 
-0.161904 0.111089 -0.470129 82 72 51 0.527399 0.740988 0.415676 0.000000 
-0.115172 0.102776 -0.554300 80 84 80 0.560450 -0.798217 0.220783 0.000000 
-0.115473 0.106248 -0.548587 40 37 26 0.469793 -0.857034 0.211632 0.000000 
-0.079739 0.098585 -0.609894 70 71 61 -0.593255 0.606777 -0.529028 0.000000 
-0.160777 0.111400 -0.483689 63 57 42 0.339711 -0.936535 0.086593 0.000000 
-0.103077 0.106259 -0.568871 77 75 65 -0.420544 -0.875510 -0.237959 0.000000 
-0.132488 0.102913 -0.524482 93 92 83 0.575097 0.817824 0.020687 0.000000 
-0.139149 0.107165 -0.507594 105 100 87 0.257048 0.966060 -0.025583 0.000000 
-0.085270 0.098346 -0.603774 69 67 55 0.075388 0.997027 0.015927 0.000000 
-0.183610 0.114889 -0.439045 79 76 62 -0.091881 -0.995558 0.020538 0.000000 
-0.210083 0.116270 -0.384863 129 128 125 0.533824 -0.842507 0.072215 0.000000 
-0.134428 0.107521 -0.524333 73 64 43 -0.053815 -0.990430 -0.127096 0.000000 
-0.187793 0.112668 -0.430623 72 67 52 -0.317350 -0.885873 -0.338406 0.000000 
-0.046834 0.091818 -0.674653 62 61 45 -0.233751 0.936403 -0.261745 0.000000 
-0.130942 0.107155 -0.519958 86 82 69 -0.859910 -0.116671 -0.496933 0.000000 
-0.113157 0.107939 -0.552362 107 104 94 0.417602 0.908118 -0.030492 0.000000 
-0.042943 0.094348 -0.672982 67 68 58 -0.934019 -0.042869 -0.354641 0.000000 
-0.168297 0.112201 -0.471541 72 67 55 0.812563 -0.497004 0.304514 0.000000 
-0.191524 0.114670 -0.418927 89 83 66 0.589792 0.771267 0.239359 0.000000 
-0.208898 0.116058 -0.386229 120 109 90 -0.593766 0.630771 -0.499570 0.000000 
-0.187567 0.114109 -0.426421 95 90 75 0.475044 0.855678 0.205303 0.000000 
-0.054117 0.093895 -0.659131 64 65 51 -0.042871 0.968889 -0.243753 0.000000 
-0.133021 0.106069 -0.529404 55 49 33 0.802850 0.426363 0.416710 0.000000 
-0.044480 0.094620 -0.670029 63 64 54 0.915524 0.057639 0.398112 0.000000 
-0.137742 0.105301 -0.520016 63 53 37 0.390465 0.917391 0.077012 0.000000 
-0.131739 0.106476 -0.520963 62 53 38 0.494339 -0.805885 0.325851 0.000000 
-0.158642 0.108618 -0.487967 54 47 34 0.638784 0.756020 0.142787 0.000000 
-0.152921 0.108173 -0.482645 96 92 79 0.433738 0.883541 0.176708 0.000000 
-0.046260 0.091573 -0.672750 78 85 78 0.056226 -0.990261 0.127368 0.000000 
-0.139853 0.105873 -0.506694 86 77 60 0.813685 -0.536817 0.223033 0.000000 
-0.186029 0.108614 -0.427683 116 116 107 -0.856992 -0.351785 -0.376580 0.000000 
-0.134964 0.107264 -0.513978 121 121 118 -0.683733 -0.459723 -0.566713 0.000000 
-0.161938 0.110970 -0.465721 103 96 81 0.793906 -0.535058 0.288837 0.000000 
-0.174662 0.113801 -0.455003 89 84 68 -0.373244 -0.925806 -0.059772 0.000000 
-0.153883 0.110370 -0.496064 76 69 56 0.247201 -0.967895 0.045505 0.000000 
-0.072795 0.098481 -0.620439 70 70 58 0.593509 -0.679959 0.430585 0.000000 
-0.134932 0.105063 -0.522599 74 70 55 0.335162 -0.888254 0.314120 0.000000 
-0.043374 0.089888 -0.684537 65 67 56 -0.269251 0.847758 -0.456958 0.000000 
-0.060597 0.096743 -0.640256 85 86 71 0.876104 -0.088595 0.473912 0.000000 
-0.187119 0.115386 -0.433782 72 66 48 -0.227634 -0.969644 0.089293 0.000000 
-0.183465 0.113741 -0.445934 74 67 47 -0.725175 0.254364 -0.639860 0.000000 
-0.188612 0.114915 -0.433846 78 71 54 -0.840012 0.515901 -0.168002 0.000000 
-0.206397 0.115607 -0.390373 117 108 89 -0.806541 -0.304623 -0.506653 0.000000 
-0.060377 0.094503 -0.645201 69 71 61 0.310238 -0.938915 0.148969 0.000000 
-0.139420 0.106311 -0.513430 76 68 50 -0.412110 0.882242 -0.227627 0.000000 
-0.176596 0.111406 -0.450833 57 52 35 0.075707 0.955956 -0.283579 0.000000 
-0.137541 0.108128 -0.524279 78 74 61 -0.613055 0.649805 -0.449351 0.000000 
-0.176384 0.111360 -0.449366 53 44 27 0.622368 0.781150 0.049619 0.000000 
-0.132540 0.105917 -0.523676 74 64 45 0.453982 -0.870994 0.187803 0.000000 
-0.170625 0.113518 -0.460796 83 78 61 0.090919 0.995830 0.007487 0.000000 
-0.170329 0.112830 -0.467781 79 74 61 0.589286 -0.692203 0.416650 0.000000 
-0.195425 0.114994 -0.417811 54 48 33 0.756194 0.517740 0.400146 0.000000 
-0.168896 0.110928 -0.455793 88 81 65 -0.792293 0.076210 -0.605363 0.000000 
-0.171044 0.108336 -0.463224 91 82 65 -0.068680 -0.988298 -0.136197 0.000000 
-0.154443 0.107110 -0.493024 78 73 57 -0.136325 -0.954276 0.266032 0.000000 
-0.188478 0.115217 -0.433319 63 59 45 0.704652 -0.616366 0.351509 0.000000 
-0.138557 0.108750 -0.518879 96 85 68 0.152949 0.986577 0.057210 0.000000 
-0.140549 0.105856 -0.504410 81 74 59 0.875906 -0.039504 0.480863 0.000000 
-0.171293 0.111900 -0.452594 95 87 68 -0.743710 0.023810 -0.668078 0.000000 
-0.123794 0.108186 -0.533694 81 78 65 0.145390 0.984089 0.102134 0.000000 
-0.164732 0.111942 -0.471381 89 82 64 -0.132878 -0.966270 0.220604 0.000000 
-0.070252 0.096228 -0.629440 80 77 62 0.142128 0.985341 -0.094354 0.000000 
-0.164383 0.110347 -0.479858 63 57 44 -0.902942 -0.350899 -0.248125 0.000000 
