ply
format ascii 1.0
comment Created by Open3D
obj_info Generated by CloudCompare!
element vertex 601
property float x
property float y
property float z
property uchar red
property uchar green
property uchar blue
property float nx
property float ny
property float nz
property float scalar_leaf2
end_header
-0.240511 -0.048275 -0.740481 124 118 106 0.776641 -0.611399 0.151723 0.000000 
-0.232120 -0.053695 -0.783586 132 125 113 -0.762584 0.630222 -0.145899 0.000000 
-0.239136 -0.046467 -0.763829 126 109 83 0.941315 0.335175 0.039810 0.000000 
-0.237615 -0.048985 -0.760808 123 109 87 0.894045 0.373873 0.246786 0.000000 
-0.234589 -0.050570 -0.770913 115 102 81 -0.926464 -0.263281 -0.268974 0.000000 
-0.235134 -0.049696 -0.771249 116 100 75 0.892513 0.392588 0.222025 0.000000 
-0.234770 -0.049068 -0.775978 107 93 76 -0.617373 -0.714597 -0.328941 0.000000 
-0.235599 -0.048482 -0.777534 117 99 70 -0.751986 -0.582028 -0.309453 0.000000 
-0.229856 -0.050510 -0.781386 119 105 82 -0.923181 -0.366254 -0.116598 0.000000 
-0.239867 -0.045002 -0.748442 117 102 82 -0.985295 -0.148567 -0.084386 0.000000 
-0.228601 -0.051184 -0.801219 105 94 75 0.939188 -0.143127 0.312154 0.000000 
-0.239742 -0.043937 -0.735468 100 92 82 0.986865 0.103070 -0.124395 0.000000 
-0.233610 -0.047257 -0.787024 114 97 76 0.760607 0.648959 0.018143 0.000000 
-0.241740 -0.042213 -0.736045 112 106 96 0.779636 0.625668 -0.026594 0.000000 
-0.237824 -0.045162 -0.780629 130 115 98 -0.402268 -0.880802 -0.249735 0.000000 
-0.239783 -0.044690 -0.729993 90 83 70 -0.963541 -0.247621 0.101358 0.000000 
-0.239743 -0.045564 -0.733432 116 108 92 -0.989006 0.044694 0.140959 0.000000 
-0.234306 -0.050406 -0.774509 114 99 76 0.547630 0.836002 -0.034660 0.000000 
-0.237504 -0.045161 -0.782222 125 112 95 -0.446800 -0.889398 -0.096643 0.000000 
-0.235185 -0.045520 -0.786288 114 98 80 -0.606952 -0.788306 -0.100915 0.000000 
-0.239656 -0.046084 -0.752582 122 107 84 0.992943 0.118544 -0.003263 0.000000 
-0.237525 -0.051350 -0.765285 114 108 95 0.731423 -0.049902 0.680095 0.000000 
-0.238392 -0.049346 -0.754600 119 106 89 -0.907070 0.255616 -0.334491 0.000000 
-0.239722 -0.043980 -0.755736 120 106 85 -0.961369 -0.275196 -0.006062 0.000000 
-0.230590 -0.051301 -0.788842 106 95 79 0.907259 -0.057968 0.416557 0.000000 
-0.234303 -0.046077 -0.791150 114 103 87 0.781948 0.609831 0.129088 0.000000 
-0.240687 -0.044133 -0.740524 124 111 92 -0.946828 0.321446 -0.013758 0.000000 
-0.230107 -0.053488 -0.798173 115 107 93 0.813664 -0.540911 0.212993 0.000000 
-0.236305 -0.048975 -0.762573 122 106 83 -0.870638 -0.481478 -0.100841 0.000000 
-0.239151 -0.047369 -0.754857 117 105 86 -0.944718 -0.276736 -0.175857 0.000000 
-0.239881 -0.045584 -0.735395 119 107 88 -0.975711 0.077321 0.204961 0.000000 
-0.233467 -0.048361 -0.783315 126 104 73 -0.603278 -0.797530 -0.001368 0.000000 
-0.241310 -0.047938 -0.738052 113 103 91 -0.928935 0.369242 -0.027207 0.000000 
-0.238833 -0.048482 -0.754386 119 104 82 0.948288 0.160521 0.273830 0.000000 
-0.241017 -0.042581 -0.762352 113 107 98 0.864264 0.502226 -0.028582 0.000000 
-0.241210 -0.049861 -0.749098 116 113 103 0.527363 -0.843493 0.102024 0.000000 
-0.237278 -0.045698 -0.775911 124 108 84 0.757890 0.652203 0.015297 0.000000 
-0.239189 -0.043127 -0.751501 108 98 86 0.964758 0.263116 -0.003604 0.000000 
-0.235100 -0.050162 -0.769736 117 104 82 -0.975231 -0.103377 -0.195544 0.000000 
-0.237286 -0.047768 -0.770705 120 102 75 0.775451 0.604821 0.181294 0.000000 
-0.228819 -0.049108 -0.807629 121 104 76 0.804006 0.422063 0.418853 0.000000 
-0.237217 -0.050612 -0.759105 122 114 100 -0.996331 0.001057 -0.085581 0.000000 
-0.240638 -0.045319 -0.741723 125 111 89 0.969488 0.210204 0.126123 0.000000 
-0.235578 -0.049194 -0.767220 116 102 83 -0.862585 -0.406013 -0.301828 0.000000 
-0.234732 -0.048317 -0.779391 122 101 70 0.564169 0.737508 0.371207 0.000000 
-0.237568 -0.049148 -0.757153 110 99 89 -0.965488 0.116990 -0.232694 0.000000 
-0.235131 -0.045952 -0.785015 113 96 75 -0.638453 -0.758069 -0.133073 0.000000 
-0.240231 -0.044512 -0.735921 108 98 87 0.980865 -0.058684 -0.185634 0.000000 
-0.240261 -0.050237 -0.748014 121 115 104 0.525112 -0.845616 0.095865 0.000000 
-0.229897 -0.048398 -0.803594 118 103 79 0.730004 0.662947 0.166118 0.000000 
-0.235236 -0.049794 -0.767661 119 107 85 0.989715 0.084899 0.115137 0.000000 
-0.232853 -0.051316 -0.772929 114 104 93 0.941209 -0.214225 0.261216 0.000000 
-0.239937 -0.043098 -0.748123 110 100 88 0.974090 0.207227 -0.090584 0.000000 
-0.227882 -0.050341 -0.789197 119 108 90 -0.885513 0.464597 0.003971 0.000000 
-0.228316 -0.052566 -0.807032 101 91 74 0.937035 -0.190183 0.292910 0.000000 
-0.237612 -0.050022 -0.758549 114 106 93 0.993746 -0.003251 0.111620 0.000000 
-0.236487 -0.046669 -0.777277 115 98 72 -0.869101 -0.457500 -0.188034 0.000000 
-0.232684 -0.048702 -0.782547 125 103 72 -0.506079 -0.862359 -0.014845 0.000000 
-0.240216 -0.044083 -0.735287 121 111 95 0.988487 0.087944 -0.123121 0.000000 
-0.240518 -0.047122 -0.738973 121 110 94 -0.984178 0.170497 -0.048209 0.000000 
-0.237239 -0.046119 -0.772983 121 104 79 0.819815 0.493770 0.289992 0.000000 
-0.228546 -0.052279 -0.807583 91 83 67 -0.928777 -0.078846 -0.362156 0.000000 
-0.236617 -0.046691 -0.774198 121 103 76 0.904504 0.379401 0.194750 0.000000 
-0.231362 -0.047835 -0.800507 117 102 78 -0.629880 -0.698239 -0.340168 0.000000 
-0.241425 -0.042398 -0.741542 121 112 99 0.856998 0.515275 0.006727 0.000000 
-0.239995 -0.043290 -0.746845 120 106 86 -0.994133 -0.102613 0.034204 0.000000 
-0.229696 -0.052316 -0.801250 104 95 81 0.876674 -0.369206 0.308431 0.000000 
-0.239943 -0.044952 -0.747901 120 103 77 -0.987357 -0.149670 -0.052210 0.000000 
-0.238777 -0.045017 -0.770357 121 104 82 0.934959 0.353034 0.034915 0.000000 
-0.229392 -0.049873 -0.799995 116 103 80 0.810549 0.480619 0.334688 0.000000 
-0.239502 -0.042412 -0.751605 117 109 100 0.890460 0.448682 0.075931 0.000000 
-0.240211 -0.042516 -0.753822 116 107 94 0.930809 0.344795 -0.121291 0.000000 
-0.237759 -0.047954 -0.757549 116 102 87 -0.873940 -0.470583 -0.121579 0.000000 
-0.228990 -0.050853 -0.789259 114 103 84 -0.813433 0.571877 -0.106226 0.000000 
-0.240431 -0.042855 -0.743020 125 112 91 -0.922982 -0.359477 -0.137406 0.000000 
-0.240012 -0.044472 -0.734666 107 101 90 0.990745 0.093641 -0.098265 0.000000 
-0.233784 -0.047013 -0.791631 122 106 84 -0.867973 -0.493008 -0.059717 0.000000 
-0.238686 -0.044498 -0.770441 115 100 85 -0.868277 -0.493996 -0.045409 0.000000 
-0.235471 -0.050167 -0.766197 117 102 81 0.956407 -0.013540 0.291723 0.000000 
-0.237520 -0.050220 -0.757846 120 109 93 0.959042 -0.200298 0.200298 0.000000 
-0.234835 -0.050515 -0.769837 122 109 89 0.908347 0.130566 0.397314 0.000000 
-0.239439 -0.044887 -0.764988 120 104 81 0.873164 0.330675 0.358104 0.000000 
-0.238592 -0.044483 -0.773674 131 116 96 -0.693978 -0.717063 -0.064925 0.000000 
-0.228280 -0.053392 -0.806848 110 105 93 -0.951142 0.159642 -0.264281 0.000000 
-0.239634 -0.044478 -0.755323 120 104 81 -0.984217 -0.176123 0.017267 0.000000 
-0.233158 -0.047880 -0.788982 124 105 78 0.681806 0.730201 0.044125 0.000000 
-0.229169 -0.051262 -0.791652 115 106 90 0.965483 -0.170686 -0.196745 0.000000 
-0.231484 -0.046762 -0.802400 117 102 85 -0.578388 -0.781057 -0.235408 0.000000 
-0.234235 -0.045771 -0.791805 113 100 85 0.775938 0.618673 0.123141 0.000000 
-0.237891 -0.049495 -0.755653 124 112 92 0.870610 -0.209839 0.444978 0.000000 
-0.236579 -0.047133 -0.774149 118 101 74 -0.931976 -0.327227 -0.156020 0.000000 
-0.236179 -0.045045 -0.786469 123 112 96 0.559007 0.820171 0.121779 0.000000 
-0.228442 -0.050894 -0.789880 117 107 89 -0.757562 0.625945 -0.185182 0.000000 
-0.228596 -0.050070 -0.803486 113 100 77 0.876989 0.476474 0.062149 0.000000 
-0.231246 -0.049214 -0.782712 121 103 76 0.607678 0.785102 -0.119761 0.000000 
-0.240299 -0.042871 -0.757845 130 118 102 0.799256 0.599793 -0.037926 0.000000 
-0.230212 -0.046468 -0.804129 123 112 98 0.704321 0.695272 0.143277 0.000000 
-0.236188 -0.047161 -0.777505 105 89 68 -0.865392 -0.451444 -0.217473 0.000000 
-0.239087 -0.050022 -0.752757 111 104 97 0.913514 -0.394253 0.100280 0.000000 
-0.240115 -0.043370 -0.730170 94 90 81 -0.825238 -0.556422 0.096832 0.000000 
-0.233254 -0.052842 -0.777153 117 112 106 -0.959354 -0.238194 -0.151338 0.000000 
-0.238281 -0.048986 -0.755601 115 103 91 0.899646 0.044377 0.434358 0.000000 
-0.232499 -0.047742 -0.796530 118 102 75 0.770372 0.629504 0.101249 0.000000 
-0.233335 -0.048778 -0.777795 105 96 79 0.569085 0.714242 0.407432 0.000000 
-0.240231 -0.044512 -0.735921 108 98 87 0.980865 -0.058684 -0.185634 0.000000 
-0.240363 -0.043231 -0.750535 122 109 87 -0.884140 -0.410229 -0.223627 0.000000 
-0.239643 -0.045384 -0.749027 120 104 79 -0.975467 -0.199556 -0.092961 0.000000 
-0.233316 -0.047928 -0.781385 123 104 77 0.569295 0.796399 0.204087 0.000000 
-0.239635 -0.045768 -0.731446 90 86 78 0.987233 -0.159086 0.007898 0.000000 
-0.231950 -0.046407 -0.803381 123 109 90 0.600232 0.773050 0.205221 0.000000 
-0.235533 -0.047480 -0.778700 107 90 69 0.771716 0.554421 0.311562 0.000000 
-0.237393 -0.048375 -0.758093 116 101 79 -0.967739 -0.247791 -0.045613 0.000000 
-0.236756 -0.048330 -0.765675 118 103 82 0.715937 0.689257 0.111170 0.000000 
-0.232184 -0.052968 -0.795399 113 105 96 -0.951128 0.296167 -0.087415 0.000000 
-0.233487 -0.048668 -0.778493 113 96 72 0.514467 0.714259 0.474508 0.000000 
-0.240173 -0.043230 -0.741350 111 101 90 0.995188 0.097694 -0.007515 0.000000 
-0.238652 -0.045205 -0.760826 116 101 79 0.922059 0.361891 -0.137269 0.000000 
-0.237523 -0.050566 -0.759719 117 108 96 0.990417 0.058530 0.125093 0.000000 
-0.229073 -0.049049 -0.799838 116 104 86 0.733819 0.650396 0.196200 0.000000 
-0.239450 -0.045966 -0.746880 120 104 78 -0.962138 -0.271561 0.023347 0.000000 
-0.242024 -0.042126 -0.748158 135 128 117 0.463577 0.885976 -0.011955 0.000000 
-0.238481 -0.047083 -0.762074 123 108 85 0.880945 0.454081 -0.133216 0.000000 
-0.240798 -0.044721 -0.740065 129 114 93 -0.988754 0.131601 0.071041 0.000000 
-0.234352 -0.046019 -0.792713 120 107 88 -0.840403 -0.537121 -0.072277 0.000000 
-0.233100 -0.053058 -0.780851 123 114 106 -0.842115 0.484484 -0.236893 0.000000 
-0.239670 -0.044215 -0.753120 119 105 82 0.991134 0.081731 -0.104754 0.000000 
-0.237885 -0.048477 -0.761286 122 108 84 0.780674 0.617243 0.097767 0.000000 
-0.240012 -0.046405 -0.730641 93 86 76 0.974332 -0.134869 -0.180245 0.000000 
-0.235221 -0.050177 -0.769126 117 103 83 -0.993452 -0.032118 -0.109645 0.000000 
-0.229954 -0.051725 -0.792063 100 91 75 -0.973206 0.175911 0.148069 0.000000 
-0.228308 -0.051158 -0.804330 101 90 70 0.930082 0.367171 -0.011514 0.000000 
-0.239651 -0.044626 -0.754275 120 104 80 0.993736 0.111619 0.005418 0.000000 
-0.229812 -0.047844 -0.800531 115 102 85 0.675012 0.690895 0.258887 0.000000 
-0.239472 -0.044831 -0.751195 116 102 83 -0.998854 0.046482 0.011362 0.000000 
-0.239766 -0.046715 -0.741695 122 111 94 0.997668 0.068047 0.005234 0.000000 
-0.230342 -0.053340 -0.799413 106 98 88 -0.824298 0.550024 -0.134188 0.000000 
-0.229014 -0.049910 -0.798645 115 102 80 0.849538 0.391255 0.353844 0.000000 
-0.240644 -0.044210 -0.741759 116 104 88 0.971820 -0.227867 0.060354 0.000000 
-0.238806 -0.047416 -0.763735 126 109 84 -0.922002 -0.385802 0.032695 0.000000 
-0.239639 -0.042707 -0.751457 112 102 89 -0.873261 -0.471762 -0.121884 0.000000 
-0.231953 -0.048593 -0.796589 119 101 73 -0.741946 -0.667031 -0.067712 0.000000 
-0.240583 -0.042524 -0.743132 113 104 91 0.890265 0.444432 0.099541 0.000000 
-0.240476 -0.046683 -0.735319 115 105 90 0.965014 -0.239652 -0.106369 0.000000 
-0.237890 -0.045066 -0.775580 129 112 88 -0.627059 -0.776291 0.064571 0.000000 
-0.237014 -0.049432 -0.765744 119 102 78 -0.660629 -0.747364 -0.070833 0.000000 
-0.230555 -0.052341 -0.796597 97 89 75 -0.870259 0.284011 -0.402476 0.000000 
-0.230491 -0.049942 -0.781928 121 106 82 -0.847167 -0.527904 0.060212 0.000000 
-0.232230 -0.048829 -0.781980 124 103 72 -0.492717 -0.849150 -0.190198 0.000000 
-0.229962 -0.052167 -0.798430 99 91 74 0.944315 -0.321719 0.069033 0.000000 
-0.230409 -0.049869 -0.783397 112 99 81 -0.883227 -0.466790 0.044910 0.000000 
-0.239390 -0.043661 -0.727404 95 94 91 -0.927179 -0.359740 0.104528 0.000000 
-0.239075 -0.046331 -0.764678 126 108 80 0.908257 0.252213 0.333854 0.000000 
-0.240915 -0.047389 -0.732742 103 100 94 -0.819446 0.566867 0.084671 0.000000 
-0.233278 -0.048621 -0.792392 121 102 73 0.768051 0.628406 0.123304 0.000000 
-0.231899 -0.048708 -0.795470 119 101 72 0.714077 0.693549 0.095308 0.000000 
-0.238945 -0.044511 -0.772146 126 112 92 -0.828255 -0.540811 -0.146686 0.000000 
-0.229881 -0.049529 -0.799273 116 102 78 -0.614830 -0.690653 -0.380766 0.000000 
-0.238879 -0.049592 -0.752634 110 102 90 -0.975457 0.220037 -0.008237 0.000000 
-0.235065 -0.049937 -0.763293 124 115 99 0.985209 0.017164 0.170495 0.000000 
-0.240056 -0.043259 -0.746408 120 105 84 -0.955999 -0.293304 -0.006136 0.000000 
-0.237591 -0.048992 -0.764207 122 108 85 -0.709710 -0.704089 -0.023891 0.000000 
-0.240169 -0.046706 -0.743022 123 109 89 0.998948 -0.036307 -0.028008 0.000000 
-0.231397 -0.050241 -0.784684 119 103 75 -0.776517 -0.620330 0.110510 0.000000 
-0.239571 -0.045215 -0.733490 121 111 93 -0.985730 -0.057433 0.158233 0.000000 
-0.237158 -0.047873 -0.769521 122 104 78 -0.654266 -0.755572 -0.032362 0.000000 
-0.235396 -0.051508 -0.767751 119 109 96 0.982314 -0.048466 0.180859 0.000000 
-0.239957 -0.046653 -0.731493 94 90 84 -0.931557 0.340613 0.127217 0.000000 
-0.237942 -0.047595 -0.766287 125 104 75 0.814553 0.508118 0.279856 0.000000 
-0.229398 -0.050395 -0.784715 108 94 75 0.763553 -0.235780 0.601161 0.000000 
-0.239002 -0.046440 -0.763538 127 111 85 -0.939945 -0.339816 0.032058 0.000000 
-0.234507 -0.049171 -0.770915 118 104 85 0.844840 0.475127 0.245966 0.000000 
-0.235291 -0.050362 -0.766984 116 104 87 0.971123 -0.040210 0.235165 0.000000 
-0.239602 -0.046051 -0.750214 120 102 73 0.994381 0.100209 -0.034137 0.000000 
-0.229654 -0.049610 -0.792655 114 101 82 0.893563 0.439114 -0.093399 0.000000 
-0.240135 -0.044276 -0.739030 108 96 82 0.997176 0.059164 0.046255 0.000000 
-0.229335 -0.051480 -0.785156 116 105 85 0.682576 -0.501450 0.531637 0.000000 
-0.231527 -0.049217 -0.798895 119 103 77 0.646187 0.694773 0.315806 0.000000 
-0.238811 -0.049026 -0.753701 109 97 86 0.992798 -0.105040 -0.057603 0.000000 
-0.238716 -0.044341 -0.766920 117 102 83 0.839363 0.509023 0.190696 0.000000 
-0.236300 -0.049753 -0.764806 121 105 83 -0.833482 -0.354506 -0.423831 0.000000 
-0.235514 -0.048691 -0.776489 112 97 74 -0.752057 -0.550642 -0.362222 0.000000 
-0.228463 -0.049658 -0.788524 116 103 81 0.885998 -0.435050 -0.160434 0.000000 
-0.237823 -0.048446 -0.759984 122 106 81 -0.907181 -0.419820 -0.027811 0.000000 
-0.240279 -0.047579 -0.732448 108 103 94 0.866799 -0.497074 -0.039711 0.000000 
-0.233149 -0.052173 -0.773611 116 106 92 -0.853136 0.445714 -0.271104 0.000000 
-0.239635 -0.045768 -0.731446 90 86 78 -0.987233 0.159086 -0.007898 0.000000 
-0.240141 -0.047693 -0.742079 119 109 95 -0.873135 0.474313 -0.112525 0.000000 
-0.232213 -0.047385 -0.786039 108 94 81 0.810759 0.561063 0.166965 0.000000 
-0.234435 -0.047022 -0.780868 122 105 78 0.718619 0.632193 0.289688 0.000000 
-0.237959 -0.047287 -0.766842 125 106 78 0.951794 0.249055 0.179050 0.000000 
-0.239952 -0.044498 -0.746281 121 104 78 0.992015 0.118231 -0.043914 0.000000 
-0.229087 -0.050590 -0.799895 107 97 79 0.964052 0.071831 0.255820 0.000000 
-0.234227 -0.045850 -0.793716 122 108 89 -0.847184 -0.513578 -0.136076 0.000000 
-0.237295 -0.047941 -0.756517 109 99 83 0.900993 0.346536 0.261008 0.000000 
-0.239484 -0.049182 -0.749883 108 100 91 0.751329 -0.655785 0.073830 0.000000 
-0.237098 -0.051761 -0.764372 123 115 102 0.984802 -0.084753 0.151600 0.000000 
-0.232477 -0.048779 -0.780979 123 104 76 -0.531910 -0.811046 -0.243469 0.000000 
-0.232363 -0.049145 -0.793305 119 101 72 0.609742 0.787280 0.091680 0.000000 
-0.238421 -0.047237 -0.760146 122 102 73 -0.945368 -0.325946 0.006244 0.000000 
-0.234218 -0.047320 -0.784294 120 100 73 -0.748456 -0.658350 -0.079932 0.000000 
-0.237123 -0.049344 -0.766861 120 103 79 -0.640186 -0.741999 -0.198998 0.000000 
-0.240343 -0.046839 -0.730020 100 100 94 0.977928 -0.034543 -0.206068 0.000000 
-0.239670 -0.044215 -0.753120 119 105 82 -0.991134 -0.081731 0.104754 0.000000 
-0.232261 -0.048800 -0.788023 123 102 71 -0.635415 -0.762794 -0.119973 0.000000 
-0.239971 -0.045559 -0.744098 123 108 84 -0.978231 -0.079382 -0.191738 0.000000 
-0.233629 -0.047724 -0.784303 119 101 79 -0.738993 -0.669304 -0.076948 0.000000 
-0.239082 -0.047989 -0.750843 117 102 78 -0.999476 -0.029546 -0.013245 0.000000 
-0.239910 -0.045266 -0.746202 121 105 79 -0.971914 -0.230479 0.047559 0.000000 
-0.237698 -0.047549 -0.768820 125 106 80 0.847566 0.524953 0.077823 0.000000 
-0.239280 -0.044452 -0.765490 114 99 82 0.864085 0.346558 0.365041 0.000000 
-0.236484 -0.050615 -0.762199 123 115 99 -0.942816 0.088596 -0.321324 0.000000 
-0.237499 -0.045469 -0.777130 124 108 86 -0.630000 -0.775924 0.032272 0.000000 
-0.236884 -0.044593 -0.787200 125 114 101 -0.486426 -0.871687 -0.059591 0.000000 
-0.239137 -0.046659 -0.746732 117 102 81 0.981777 0.185486 -0.041350 0.000000 
-0.233091 -0.051369 -0.775825 108 97 81 0.884451 0.444383 0.142375 0.000000 
-0.239839 -0.047177 -0.744051 121 107 87 -0.953355 0.153337 -0.260006 0.000000 
-0.239481 -0.045211 -0.726931 92 92 86 0.917166 0.372729 -0.140995 0.000000 
-0.236006 -0.051358 -0.765621 118 109 94 0.806012 -0.434253 0.402205 0.000000 
-0.232853 -0.053087 -0.779378 124 116 103 0.928180 -0.239485 0.284831 0.000000 
-0.239959 -0.043418 -0.745774 120 106 85 0.947359 0.316641 0.047432 0.000000 
-0.233699 -0.047559 -0.788679 124 106 79 0.723518 0.689669 -0.029618 0.000000 
-0.233855 -0.047297 -0.789507 121 104 79 -0.725520 -0.685133 -0.064907 0.000000 
-0.238671 -0.044964 -0.770571 122 105 83 -0.924455 -0.378486 -0.046157 0.000000 
-0.236805 -0.047360 -0.773716 115 98 71 0.928273 0.321595 0.186778 0.000000 
-0.227748 -0.049822 -0.789164 116 105 85 0.986943 0.107817 -0.119665 0.000000 
-0.240052 -0.045467 -0.734576 111 105 94 0.976519 -0.102726 -0.189363 0.000000 
-0.237835 -0.046180 -0.771868 119 103 79 0.818545 0.496135 0.289543 0.000000 
-0.236009 -0.047065 -0.778500 105 88 67 -0.839218 -0.463819 -0.283876 0.000000 
-0.240048 -0.043107 -0.758550 127 116 100 0.742299 0.668211 -0.049867 0.000000 
-0.229782 -0.051354 -0.793154 114 105 87 -0.982545 0.085596 0.165164 0.000000 
-0.236449 -0.050521 -0.763843 124 113 96 0.991588 -0.129050 -0.009927 0.000000 
-0.233228 -0.051706 -0.773560 110 100 89 -0.908247 0.385188 -0.163456 0.000000 
-0.230053 -0.052642 -0.789993 118 109 93 0.666675 -0.727420 0.162493 0.000000 
-0.236483 -0.045609 -0.779918 110 93 74 -0.545865 -0.796119 -0.261202 0.000000 
-0.234248 -0.051336 -0.770795 121 110 91 0.826064 -0.057895 0.560594 0.000000 
-0.239680 -0.046173 -0.732384 113 104 85 -0.968200 0.237341 0.079114 0.000000 
-0.239457 -0.044721 -0.776599 136 120 98 0.484526 0.862835 -0.144048 0.000000 
-0.238743 -0.044209 -0.768475 113 99 84 -0.844519 -0.525127 0.105025 0.000000 
-0.239285 -0.046696 -0.746323 119 104 79 -0.986489 -0.160377 0.033460 0.000000 
-0.238056 -0.047936 -0.762108 124 107 81 0.789499 0.613750 0.001373 0.000000 
-0.238339 -0.050837 -0.764697 119 112 98 0.799933 0.548304 0.243863 0.000000 
-0.239963 -0.043202 -0.747035 112 101 88 0.994848 0.100676 0.011908 0.000000 
-0.237995 -0.045645 -0.770934 114 97 81 0.886332 0.384127 0.258576 0.000000 
-0.239007 -0.045175 -0.727739 86 84 77 -0.910346 -0.385309 0.151019 0.000000 
-0.237501 -0.049541 -0.757656 118 106 88 0.991868 0.009930 0.126880 0.000000 
-0.239011 -0.049846 -0.754890 115 107 95 0.886715 -0.338728 0.314641 0.000000 
-0.237156 -0.045767 -0.776259 114 98 76 0.768018 0.640246 0.015277 0.000000 
-0.231977 -0.053138 -0.794155 113 104 93 0.929218 -0.359046 -0.087408 0.000000 
-0.237266 -0.048284 -0.768238 123 105 81 0.722887 0.684763 0.092377 0.000000 
-0.233541 -0.047024 -0.785171 113 96 77 0.743600 0.634932 0.209574 0.000000 
-0.240073 -0.047143 -0.742917 130 117 96 -0.973554 0.228306 -0.008281 0.000000 
-0.231480 -0.052681 -0.779849 117 107 92 -0.579299 0.788277 -0.207441 0.000000 
-0.239550 -0.045920 -0.750165 117 103 82 -0.992658 -0.120950 -0.001090 0.000000 
-0.238481 -0.047083 -0.762074 123 108 85 0.880945 0.454081 -0.133216 0.000000 
-0.240427 -0.043822 -0.740361 110 100 88 0.990209 -0.139231 0.010025 0.000000 
-0.239766 -0.046715 -0.741695 122 111 94 0.997668 0.068047 0.005234 0.000000 
-0.235884 -0.048288 -0.776277 110 95 74 0.858604 0.437690 0.266884 0.000000 
-0.240486 -0.042270 -0.756733 116 106 95 -0.706225 -0.706225 0.049935 0.000000 
-0.235396 -0.051508 -0.767751 119 109 96 0.982314 -0.048466 0.180859 0.000000 
-0.239558 -0.049113 -0.746772 122 114 102 -0.840554 0.455235 -0.293650 0.000000 
-0.229954 -0.051725 -0.792063 100 91 75 -0.973206 0.175911 0.148069 0.000000 
-0.236311 -0.049154 -0.774926 117 99 69 -0.863309 -0.450488 -0.227504 0.000000 
-0.240322 -0.043233 -0.736208 106 96 84 -0.910652 -0.393077 0.127295 0.000000 
-0.231479 -0.052069 -0.781478 112 101 90 -0.612964 0.784768 -0.091726 0.000000 
-0.233637 -0.047538 -0.786819 121 101 74 -0.835606 -0.546304 -0.057580 0.000000 
-0.229280 -0.047584 -0.808934 117 100 75 -0.713389 -0.676569 -0.182566 0.000000 
-0.239422 -0.047757 -0.745924 117 106 89 0.969936 -0.115378 0.214273 0.000000 
-0.236692 -0.049338 -0.763923 122 109 87 0.878976 0.472017 -0.067827 0.000000 
-0.236540 -0.050882 -0.761837 123 115 99 -0.913481 0.011695 -0.406713 0.000000 
-0.239851 -0.044658 -0.731763 90 85 77 0.990501 0.134095 0.030425 0.000000 
-0.239514 -0.046807 -0.741445 120 109 91 0.999618 0.005033 0.027180 0.000000 
-0.237814 -0.045516 -0.779683 133 117 92 0.412846 0.896178 0.162549 0.000000 
-0.229316 -0.051798 -0.787082 118 107 90 0.694323 -0.712012 -0.104664 0.000000 
-0.239191 -0.044434 -0.758887 114 100 87 0.919824 0.388901 0.051765 0.000000 
-0.231653 -0.050064 -0.792933 119 104 78 -0.607012 -0.586722 -0.535997 0.000000 
-0.240626 -0.046913 -0.736450 122 110 91 0.997459 -0.066922 -0.024432 0.000000 
-0.237963 -0.050263 -0.756524 120 109 94 0.894928 -0.274563 0.351738 0.000000 
-0.237499 -0.044915 -0.784969 133 119 103 0.517863 0.843545 0.142302 0.000000 
-0.234367 -0.046627 -0.785704 114 96 72 -0.760982 -0.631389 -0.149183 0.000000 
-0.230398 -0.049414 -0.785307 115 100 76 -0.563323 -0.813028 -0.147148 0.000000 
-0.239208 -0.047364 -0.746983 119 106 85 -0.999095 -0.007158 -0.041927 0.000000 
-0.239693 -0.045984 -0.751473 118 102 81 -0.999913 -0.002973 0.012883 0.000000 
-0.236732 -0.045561 -0.777535 111 99 87 0.726206 0.687475 0.001383 0.000000 
-0.232997 -0.050847 -0.773313 117 104 84 0.797005 0.575362 0.183691 0.000000 
-0.235374 -0.045412 -0.787521 116 101 83 0.668528 0.743581 0.012509 0.000000 
-0.230291 -0.045857 -0.800582 98 91 80 -0.622032 -0.747378 -0.233458 0.000000 
-0.239590 -0.046122 -0.754884 124 107 82 0.978347 0.193239 0.074136 0.000000 
-0.235884 -0.048288 -0.776277 110 95 74 0.858604 0.437690 0.266884 0.000000 
-0.233706 -0.048032 -0.780524 120 102 75 -0.540053 -0.782201 -0.310650 0.000000 
-0.239514 -0.046807 -0.741445 120 109 91 0.999618 0.005033 0.027180 0.000000 
-0.239387 -0.044558 -0.776155 134 119 99 -0.495094 -0.863932 0.092210 0.000000 
-0.234264 -0.052664 -0.774706 110 104 95 -0.973554 -0.008281 -0.228306 0.000000 
-0.238798 -0.046621 -0.764121 127 108 81 0.941315 0.335175 0.039810 0.000000 
-0.232266 -0.048994 -0.787741 122 104 76 -0.607094 -0.776657 -0.168049 0.000000 
-0.238725 -0.043075 -0.764023 112 110 100 0.925428 0.332817 0.181154 0.000000 
-0.232212 -0.048933 -0.780311 118 101 75 -0.483563 -0.810166 -0.331359 0.000000 
-0.229666 -0.052360 -0.797547 111 102 87 0.916146 -0.356516 0.183229 0.000000 
-0.235882 -0.048623 -0.770048 119 102 76 -0.694416 -0.719465 -0.012525 0.000000 
-0.240947 -0.042417 -0.749563 118 111 100 0.397776 0.910588 0.112264 0.000000 
-0.236432 -0.048443 -0.772600 119 101 73 -0.855873 -0.514633 -0.051325 0.000000 
-0.238921 -0.046136 -0.729576 95 91 79 0.975719 -0.059688 -0.210736 0.000000 
-0.233959 -0.048069 -0.781540 125 104 72 0.545422 0.809682 0.216632 0.000000 
-0.238766 -0.046588 -0.761456 123 104 76 -0.945677 -0.285462 0.155584 0.000000 
-0.240152 -0.047960 -0.744298 121 110 94 -0.928617 0.318905 -0.189657 0.000000 
-0.234139 -0.052207 -0.772052 123 113 95 -0.678824 0.481044 -0.554792 0.000000 
-0.240403 -0.046239 -0.737135 121 109 91 0.999343 0.025624 -0.025624 0.000000 
-0.232895 -0.050244 -0.778763 113 98 74 0.698029 0.376115 0.609338 0.000000 
-0.238319 -0.046494 -0.765619 125 107 79 -0.823702 -0.235563 -0.515776 0.000000 
-0.228081 -0.050563 -0.802141 109 97 77 0.932395 0.315430 0.176474 0.000000 
-0.237569 -0.045992 -0.772793 118 104 82 0.844864 0.478196 0.239862 0.000000 
-0.235942 -0.050685 -0.765744 115 103 89 -0.723840 0.293709 -0.624332 0.000000 
-0.239442 -0.046529 -0.749942 116 98 71 -0.969981 -0.230948 0.076150 0.000000 
-0.238288 -0.045106 -0.768477 122 104 79 -0.922233 -0.363639 0.131352 0.000000 
-0.240071 -0.049787 -0.750568 118 110 98 -0.704808 0.692683 -0.153087 0.000000 
-0.232239 -0.048383 -0.784930 123 105 78 -0.689844 -0.723564 0.023885 0.000000 
-0.231562 -0.046697 -0.800578 118 105 89 0.597421 0.755888 0.267809 0.000000 
-0.231695 -0.049287 -0.785726 118 103 78 0.651410 0.756890 -0.052740 0.000000 
-0.234702 -0.051113 -0.770889 115 103 88 -0.958552 -0.062211 -0.278044 0.000000 
-0.230676 -0.050115 -0.796297 114 99 75 -0.896105 -0.439160 -0.064301 0.000000 
-0.240113 -0.046188 -0.734883 120 109 92 0.955520 -0.253831 -0.150172 0.000000 
-0.240293 -0.049782 -0.747195 124 119 109 0.600087 -0.775048 0.197983 0.000000 
-0.239596 -0.044656 -0.753129 120 105 82 -0.997331 -0.048310 0.054751 0.000000 
-0.233401 -0.052334 -0.776101 106 98 87 -0.978656 -0.152566 -0.137682 0.000000 
-0.238373 -0.047006 -0.760526 120 103 81 0.963397 0.251376 -0.093150 0.000000 
-0.231990 -0.053001 -0.779776 118 110 96 0.582761 -0.771255 0.256038 0.000000 
-0.232873 -0.050901 -0.777322 105 94 81 -0.908490 -0.323311 -0.264793 0.000000 
-0.239088 -0.045077 -0.728013 84 83 76 -0.910346 -0.385309 0.151019 0.000000 
-0.239645 -0.043961 -0.757069 123 107 85 0.915709 0.400705 0.030217 0.000000 
-0.239995 -0.043290 -0.746845 120 106 86 -0.994133 -0.102613 0.034204 0.000000 
-0.239075 -0.047595 -0.753755 120 106 84 -0.957492 -0.287865 -0.018532 0.000000 
-0.229579 -0.052434 -0.785773 123 113 97 -0.664650 0.728530 -0.165782 0.000000 
-0.237382 -0.048665 -0.761651 124 108 85 -0.805583 -0.553935 -0.210219 0.000000 
-0.239796 -0.045260 -0.779581 135 124 110 0.355919 0.934127 0.026983 0.000000 
-0.239955 -0.043457 -0.743929 112 102 88 0.967383 0.212541 0.137829 0.000000 
-0.241278 -0.045391 -0.741309 127 111 88 -0.971423 -0.216847 -0.096516 0.000000 
-0.237548 -0.048562 -0.759886 115 102 84 0.939081 0.341367 0.039934 0.000000 
-0.237904 -0.048873 -0.755749 116 105 90 -0.909484 -0.052393 -0.412425 0.000000 
-0.239712 -0.044539 -0.744416 115 102 88 -0.981559 -0.090773 -0.168233 0.000000 
-0.231815 -0.048349 -0.794652 119 103 78 -0.711987 -0.681495 -0.169230 0.000000 
-0.238826 -0.044500 -0.775094 135 120 98 -0.530996 -0.845969 0.048779 0.000000 
-0.231463 -0.052405 -0.782021 111 105 95 -0.646807 0.762653 0.001379 0.000000 
-0.238770 -0.048138 -0.764108 124 106 80 -0.862574 -0.499533 -0.080207 0.000000 
-0.239609 -0.044888 -0.729771 88 83 71 -0.955017 -0.237080 0.178145 0.000000 
-0.235617 -0.051609 -0.767306 126 118 104 0.923627 -0.244112 0.295504 0.000000 
-0.236334 -0.048739 -0.764084 121 105 84 -0.726010 -0.686072 -0.047069 0.000000 
-0.235617 -0.051609 -0.767306 126 118 104 -0.923627 0.244112 -0.295504 0.000000 
-0.239621 -0.044156 -0.727158 90 90 84 0.910346 0.385309 -0.151019 0.000000 
-0.239763 -0.044228 -0.762312 121 103 80 0.910594 0.400882 -0.100565 0.000000 
-0.237814 -0.045516 -0.779683 133 117 92 0.412846 0.896178 0.162549 0.000000 
-0.235604 -0.050378 -0.766264 117 105 87 0.963293 -0.064220 0.260656 0.000000 
-0.237917 -0.049117 -0.755912 118 104 84 -0.917162 0.014270 -0.398259 0.000000 
-0.228862 -0.050394 -0.789874 111 98 77 0.891532 -0.424882 0.156990 0.000000 
-0.238308 -0.044817 -0.776811 129 113 92 0.585820 0.793643 -0.164150 0.000000 
-0.242253 -0.041885 -0.734192 116 111 103 0.675550 0.737090 0.018182 0.000000 
-0.233956 -0.047284 -0.782110 115 98 75 0.646127 0.760740 0.061604 0.000000 
-0.231668 -0.046578 -0.807119 122 108 87 -0.705005 -0.705005 -0.077042 0.000000 
-0.230310 -0.050060 -0.782407 117 102 78 0.828419 0.553710 -0.084416 0.000000 
-0.235009 -0.050208 -0.775377 114 96 68 -0.581294 -0.765027 -0.277184 0.000000 
-0.237306 -0.046529 -0.772702 115 99 74 -0.830715 -0.461509 -0.311323 0.000000 
-0.233128 -0.048046 -0.789116 125 106 78 0.699564 0.713696 -0.035331 0.000000 
-0.238193 -0.045015 -0.768131 121 104 80 -0.927696 -0.367628 0.065032 0.000000 
-0.236359 -0.050037 -0.762053 120 111 95 0.916242 0.088493 0.390730 0.000000 
-0.231259 -0.049874 -0.786423 120 104 76 -0.735305 -0.659501 -0.156158 0.000000 
-0.233057 -0.048673 -0.792650 122 104 76 0.701962 0.698956 0.136785 0.000000 
-0.231195 -0.047072 -0.804219 117 101 78 0.632623 0.770965 0.073494 0.000000 
-0.232858 -0.050826 -0.773432 111 100 88 0.940243 0.338999 0.031981 0.000000 
-0.233843 -0.047823 -0.783733 123 104 78 -0.692544 -0.718460 -0.064791 0.000000 
-0.240348 -0.042651 -0.751702 127 113 91 0.831603 0.545242 0.105577 0.000000 
-0.229599 -0.047686 -0.803452 116 101 82 -0.731939 -0.651473 -0.199620 0.000000 
-0.233187 -0.048499 -0.784378 122 103 76 0.729024 0.684247 0.018191 0.000000 
-0.238014 -0.048192 -0.759930 122 106 82 -0.882479 -0.470030 -0.017409 0.000000 
-0.232457 -0.047347 -0.796358 117 102 82 -0.770372 -0.629504 -0.101249 0.000000 
-0.237571 -0.051076 -0.761997 119 114 105 -0.946852 0.107266 -0.303258 0.000000 
-0.233788 -0.047475 -0.787972 123 104 77 0.711214 0.702864 -0.012526 0.000000 
-0.231522 -0.049124 -0.782273 124 105 76 0.551072 0.831566 0.069415 0.000000 
-0.240787 -0.047762 -0.734796 121 115 103 -0.862391 0.506098 0.012146 0.000000 
-0.229851 -0.051645 -0.795103 94 83 68 0.988357 -0.083045 -0.127492 0.000000 
-0.228994 -0.051512 -0.800844 105 95 80 0.926753 -0.175256 0.332285 0.000000 
-0.239869 -0.046715 -0.742017 118 105 91 0.999715 0.021142 -0.011074 0.000000 
-0.239294 -0.049095 -0.748527 116 106 91 0.802016 -0.590272 0.091369 0.000000 
-0.237922 -0.048493 -0.760771 123 107 83 -0.818396 -0.557930 -0.137633 0.000000 
-0.240780 -0.045851 -0.741472 126 110 86 -0.973166 -0.223450 -0.054947 0.000000 
-0.232421 -0.047538 -0.791124 117 101 82 0.825618 0.562093 -0.049060 0.000000 
-0.237857 -0.045165 -0.766569 114 98 84 -0.872697 -0.429612 -0.232021 0.000000 
-0.235819 -0.045464 -0.782592 117 101 80 -0.583578 -0.806583 -0.094126 0.000000 
-0.240167 -0.043272 -0.741004 113 103 89 -0.994296 -0.104143 -0.023021 0.000000 
-0.230481 -0.048794 -0.798589 120 106 84 0.587595 0.736517 0.335075 0.000000 
-0.239412 -0.045172 -0.750319 116 101 84 0.997374 -0.035353 0.063206 0.000000 
-0.230394 -0.048834 -0.788356 122 103 77 0.423150 0.857070 0.293897 0.000000 
-0.233316 -0.048133 -0.787664 121 102 74 0.777140 0.622587 0.091857 0.000000 
-0.233478 -0.047947 -0.781997 124 104 77 0.595888 0.802426 0.032097 0.000000 
-0.229256 -0.050616 -0.799257 112 99 78 0.937286 0.181365 0.297661 0.000000 
-0.240996 -0.042906 -0.734100 121 108 88 0.802216 0.596449 -0.026416 0.000000 
-0.237218 -0.049268 -0.758733 118 105 86 0.985717 0.162148 0.045495 0.000000 
-0.236567 -0.046543 -0.776546 110 94 72 -0.895990 -0.434798 -0.090294 0.000000 
-0.240120 -0.043221 -0.746235 112 101 88 0.952057 0.305797 0.008666 0.000000 
-0.239183 -0.044289 -0.771888 125 113 95 -0.849649 -0.512694 -0.123453 0.000000 
-0.235618 -0.049070 -0.765474 122 107 84 0.863757 0.377220 0.334109 0.000000 
-0.231848 -0.048148 -0.799763 119 103 78 0.584844 0.719178 0.375152 0.000000 
-0.230838 -0.052435 -0.783644 119 106 87 0.873667 -0.390491 0.290210 0.000000 
-0.238648 -0.047643 -0.756634 117 104 83 0.812088 0.541904 0.216455 0.000000 
-0.239072 -0.047014 -0.749318 120 103 78 0.970995 0.232596 -0.055380 0.000000 
-0.239506 -0.043264 -0.751962 118 106 86 -0.961042 -0.274052 0.035962 0.000000 
-0.227814 -0.052275 -0.808919 92 82 64 0.829817 0.288023 0.477962 0.000000 
-0.229447 -0.049034 -0.803533 117 103 82 -0.851291 -0.524395 -0.017707 0.000000 
-0.228016 -0.051986 -0.805566 100 91 73 0.963446 0.262985 0.051101 0.000000 
-0.229684 -0.052248 -0.793071 107 97 79 0.947688 -0.231110 -0.220170 0.000000 
-0.234521 -0.050245 -0.771845 116 103 82 0.881039 0.405368 0.243819 0.000000 
-0.233100 -0.053058 -0.780851 123 114 106 0.842115 -0.484484 0.236893 0.000000 
-0.236368 -0.046499 -0.778157 107 90 65 -0.813875 -0.542074 -0.209195 0.000000 
-0.236400 -0.047781 -0.774823 111 95 71 -0.959449 -0.226298 -0.168069 0.000000 
-0.239750 -0.043078 -0.753881 119 107 90 0.925260 0.376176 -0.048837 0.000000 
-0.239862 -0.045390 -0.747781 121 102 72 -0.964202 -0.264944 0.010888 0.000000 
-0.240719 -0.042510 -0.758414 127 118 107 -0.751545 -0.657065 0.058692 0.000000 
-0.240231 -0.043176 -0.750550 120 107 86 0.879074 0.413419 0.237305 0.000000 
-0.240604 -0.047301 -0.737972 120 109 94 -0.985555 0.127823 0.111099 0.000000 
-0.239705 -0.046263 -0.731019 91 85 76 -0.975747 0.144416 0.164508 0.000000 
-0.236880 -0.046540 -0.776468 120 103 76 0.866127 0.495129 0.068342 0.000000 
-0.230361 -0.053716 -0.796940 120 113 104 -0.770765 0.581620 -0.260074 0.000000 
-0.240500 -0.045154 -0.738259 128 116 98 0.997557 0.052503 0.046074 0.000000 
-0.235516 -0.045656 -0.785208 116 100 79 -0.613822 -0.775906 -0.145576 0.000000 
-0.238879 -0.045226 -0.760317 118 101 75 -0.934752 -0.349378 0.064602 0.000000 
-0.229131 -0.050659 -0.787840 111 98 76 0.563983 -0.760011 -0.322965 0.000000 
-0.239032 -0.046434 -0.729041 104 103 92 0.965641 0.186352 -0.181139 0.000000 
-0.237835 -0.048622 -0.757366 117 102 80 -0.970610 -0.206810 -0.123071 0.000000 
-0.240039 -0.047606 -0.743761 121 109 92 -0.951967 0.246407 -0.181776 0.000000 
-0.237397 -0.046207 -0.773518 120 105 82 0.816760 0.496954 0.293156 0.000000 
-0.239868 -0.045251 -0.748531 120 101 71 0.974588 0.204850 0.090631 0.000000 
-0.228308 -0.051158 -0.804330 101 90 70 0.930082 0.367171 -0.011514 0.000000 
-0.233763 -0.047262 -0.788814 117 100 75 0.706113 0.706113 -0.052994 0.000000 
-0.236880 -0.046540 -0.776468 120 103 76 0.866127 0.495129 0.068342 0.000000 
-0.235671 -0.047090 -0.779100 111 90 62 0.776882 0.532397 0.336166 0.000000 
-0.228169 -0.050974 -0.803584 102 91 72 0.915673 0.386924 0.108779 0.000000 
-0.232872 -0.051669 -0.775321 116 105 87 -0.996601 0.048906 -0.066295 0.000000 
-0.239412 -0.045172 -0.750319 116 101 84 0.997374 -0.035353 0.063206 0.000000 
-0.240336 -0.043885 -0.735626 116 107 92 0.980609 0.169323 -0.098670 0.000000 
-0.235067 -0.048782 -0.777522 116 99 70 -0.628640 -0.693953 -0.351058 0.000000 
-0.240476 -0.045518 -0.736189 110 99 84 0.990713 -0.077273 -0.111873 0.000000 
-0.229019 -0.051266 -0.791696 117 108 91 -0.975599 0.100667 0.195120 0.000000 
-0.235191 -0.045254 -0.786787 113 98 81 -0.628794 -0.771768 -0.094830 0.000000 
-0.232741 -0.052249 -0.775890 117 107 92 -0.979144 -0.154342 -0.132117 0.000000 
-0.233816 -0.046010 -0.797125 119 106 87 0.791404 0.594671 0.141588 0.000000 
-0.225035 -0.049757 -0.807613 109 96 72 -0.905798 -0.207247 -0.369566 0.000000 
-0.237716 -0.047854 -0.770307 122 102 75 -0.761551 -0.636853 -0.120245 0.000000 
-0.240911 -0.049760 -0.749994 121 115 106 -0.544755 0.837334 -0.045977 0.000000 
-0.230210 -0.048427 -0.782404 107 94 82 0.634772 0.771099 -0.049703 0.000000 
-0.240641 -0.043678 -0.738000 115 106 90 0.993805 0.103267 0.041085 0.000000 
-0.240608 -0.046082 -0.736990 112 102 89 0.999478 -0.013218 -0.029486 0.000000 
-0.236459 -0.045997 -0.778974 112 96 75 0.586050 0.766130 0.263801 0.000000 
-0.239705 -0.044571 -0.732571 112 103 84 0.990851 0.107275 -0.081898 0.000000 
-0.229504 -0.050092 -0.794794 112 98 78 0.940976 0.323419 -0.099821 0.000000 
-0.233604 -0.047657 -0.787555 122 102 75 -0.771034 -0.632161 -0.076669 0.000000 
-0.239862 -0.044318 -0.745894 115 103 88 -0.990040 -0.136908 0.032813 0.000000 
-0.232719 -0.049106 -0.779530 117 100 74 -0.534271 -0.741404 -0.406046 0.000000 
-0.237515 -0.050944 -0.759718 118 107 90 -0.988670 0.012372 -0.149594 0.000000 
-0.239783 -0.044690 -0.729993 90 83 70 -0.963541 -0.247621 0.101358 0.000000 
-0.231194 -0.053898 -0.801056 111 106 96 0.824078 -0.557592 0.099932 0.000000 
-0.239022 -0.047783 -0.751898 119 104 80 -0.946094 -0.323697 -0.011248 0.000000 
-0.239842 -0.046660 -0.731914 97 93 82 0.898558 -0.437964 -0.027955 0.000000 
-0.229146 -0.050095 -0.787951 113 99 76 -0.155165 0.963591 0.217753 0.000000 
-0.232678 -0.051425 -0.776568 112 100 81 0.960305 0.265398 0.085902 0.000000 
-0.229107 -0.051441 -0.785556 116 104 85 0.677547 -0.573823 0.460062 0.000000 
-0.239820 -0.049071 -0.748202 116 107 91 -0.798387 0.599854 -0.052469 0.000000 
-0.239141 -0.047265 -0.749891 119 103 78 -0.968210 -0.233532 0.089626 0.000000 
-0.236179 -0.045045 -0.786469 123 112 96 0.559007 0.820171 0.121779 0.000000 
-0.235312 -0.051523 -0.768084 119 110 96 0.986370 -0.142935 0.081508 0.000000 
-0.236409 -0.046691 -0.775184 102 87 70 0.925856 0.377770 0.008964 0.000000 
-0.235396 -0.051508 -0.767751 119 109 96 -0.982314 0.048466 -0.180859 0.000000 
-0.239960 -0.043184 -0.761395 124 112 97 -0.873667 -0.484151 0.048004 0.000000 
-0.235970 -0.046769 -0.779206 112 92 65 0.752758 0.586544 0.298866 0.000000 
-0.240063 -0.046532 -0.733146 102 96 83 -0.895769 0.424461 0.132023 0.000000 
-0.229582 -0.048763 -0.801510 114 101 82 -0.705167 -0.673896 -0.220462 0.000000 
-0.238886 -0.047952 -0.753916 117 101 77 0.980607 0.193773 0.029359 0.000000 
-0.234281 -0.053159 -0.772973 117 108 97 -0.832862 0.432962 -0.344796 0.000000 
-0.236392 -0.047675 -0.774623 120 101 72 -0.962511 -0.235744 -0.134152 0.000000 
-0.239037 -0.044606 -0.765799 117 103 82 0.877452 0.333036 0.345202 0.000000 
-0.239390 -0.043661 -0.727404 95 94 91 0.927179 0.359740 -0.104528 0.000000 
-0.230464 -0.053865 -0.798463 125 114 97 0.816928 -0.553113 0.163386 0.000000 
-0.226819 -0.049338 -0.807313 118 105 84 0.775255 0.352975 0.523821 0.000000 
-0.241149 -0.042665 -0.737404 112 104 91 -0.851992 -0.516316 -0.086764 0.000000 
-0.238868 -0.047256 -0.748663 119 102 78 0.992964 0.112558 0.036776 0.000000 
-0.228661 -0.050189 -0.801030 112 100 80 -0.916008 -0.311124 -0.253241 0.000000 
-0.238028 -0.045523 -0.772437 121 105 83 0.821728 0.529016 0.211911 0.000000 
-0.233582 -0.047628 -0.792514 122 105 80 -0.852975 -0.515191 -0.083736 0.000000 
-0.229166 -0.051738 -0.781260 113 103 88 -0.907782 0.419278 0.011755 0.000000 
-0.238541 -0.048176 -0.749002 116 103 83 0.984089 -0.094924 0.150197 0.000000 
-0.239392 -0.043242 -0.771053 119 106 96 -0.810954 -0.583269 -0.046380 0.000000 
-0.240896 -0.047964 -0.733823 119 116 105 0.877282 -0.458152 -0.143082 0.000000 
-0.240352 -0.043579 -0.739597 120 109 92 0.995560 0.049394 0.080128 0.000000 
-0.230194 -0.054289 -0.800543 121 115 105 -0.841486 0.528644 -0.111522 0.000000 
-0.239870 -0.047716 -0.737311 114 107 93 0.957943 -0.285265 -0.031142 0.000000 
-0.230098 -0.048430 -0.801676 119 103 80 0.683271 0.692695 0.230898 0.000000 
-0.229788 -0.051727 -0.786096 111 99 84 0.619203 -0.745250 0.247366 0.000000 
-0.235193 -0.047154 -0.780555 117 96 66 0.711656 0.569655 0.411143 0.000000 
-0.239983 -0.046006 -0.733760 109 102 88 0.940726 -0.292518 -0.171665 0.000000 
-0.240287 -0.042962 -0.739301 107 96 86 -0.965700 -0.240471 -0.097970 0.000000 
-0.241190 -0.047581 -0.738437 110 101 93 0.940513 -0.329378 0.083337 0.000000 
-0.238999 -0.047416 -0.764401 126 107 79 -0.883955 -0.382697 -0.268638 0.000000 
-0.240012 -0.044472 -0.734666 107 101 90 -0.990745 -0.093641 0.098265 0.000000 
-0.241229 -0.042034 -0.735694 116 111 103 0.732388 0.677495 0.067894 0.000000 
-0.237235 -0.048713 -0.761852 125 109 84 0.816300 0.534500 0.219007 0.000000 
-0.240199 -0.043369 -0.732806 112 102 84 -0.841113 -0.536791 0.066218 0.000000 
-0.231362 -0.047835 -0.800507 117 102 78 0.629880 0.698239 0.340168 0.000000 
-0.242757 -0.042700 -0.748570 128 121 111 0.540740 0.840693 -0.028895 0.000000 
-0.227832 -0.050356 -0.806954 110 99 81 -0.876335 -0.174097 -0.449140 0.000000 
-0.230300 -0.053282 -0.800500 111 102 87 0.875270 -0.473692 0.097566 0.000000 
-0.229602 -0.051205 -0.788046 106 94 77 -0.773429 0.609322 0.174743 0.000000 
-0.238598 -0.048609 -0.750599 117 105 88 0.968681 -0.246728 0.027954 0.000000 
-0.228727 -0.050206 -0.786073 116 101 78 -0.951813 0.261782 -0.159754 0.000000 
-0.235955 -0.045485 -0.784329 117 100 79 -0.586961 -0.794123 -0.157624 0.000000 
-0.239259 -0.045875 -0.753469 116 102 87 0.989873 0.137514 0.035231 0.000000 
-0.235102 -0.051222 -0.769441 118 108 93 -0.960637 0.269586 -0.067080 0.000000 
-0.233268 -0.047976 -0.790262 124 104 77 0.774485 0.632147 -0.023723 0.000000 
-0.234471 -0.049577 -0.777054 113 96 67 -0.615861 -0.681905 -0.394614 0.000000 
-0.231934 -0.052892 -0.778596 118 109 95 -0.892434 0.284566 -0.350120 0.000000 
-0.232513 -0.049177 -0.786806 120 103 77 -0.664509 -0.740789 -0.098283 0.000000 
-0.242542 -0.049676 -0.748076 122 118 111 -0.542146 0.831485 -0.121289 0.000000 
-0.234341 -0.046791 -0.784827 115 96 71 -0.751398 -0.635092 -0.179050 0.000000 
-0.241493 -0.048616 -0.740070 122 117 106 0.542419 -0.836997 0.072228 0.000000 
-0.240648 -0.048338 -0.739447 122 115 102 -0.699667 0.708468 -0.092409 0.000000 
-0.240716 -0.047957 -0.740933 117 103 88 0.794585 -0.593349 0.128732 0.000000 
-0.234105 -0.046698 -0.786570 119 101 75 0.741051 0.671273 0.015351 0.000000 
-0.239222 -0.046651 -0.758259 124 108 82 0.932837 0.350982 0.081406 0.000000 
-0.240580 -0.042820 -0.749725 122 110 92 0.573499 0.784871 0.234684 0.000000 
-0.239136 -0.050596 -0.753551 117 112 102 0.932327 -0.357982 0.051140 0.000000 
-0.229634 -0.051952 -0.781057 121 108 89 -0.899846 0.428564 -0.081303 0.000000 
-0.229268 -0.051117 -0.798048 108 99 82 0.953938 0.008639 0.299880 0.000000 
-0.233818 -0.052938 -0.774279 109 104 94 -0.874906 0.435225 -0.212413 0.000000 
-0.240300 -0.045591 -0.737685 123 110 91 0.999374 -0.001010 -0.035367 0.000000 
-0.238921 -0.048557 -0.748241 116 104 85 -0.980518 0.184073 -0.068576 0.000000 
-0.238199 -0.044967 -0.772884 122 107 90 0.816506 0.564371 0.121670 0.000000 
-0.236380 -0.048986 -0.774113 117 99 70 -0.926407 -0.368686 -0.076419 0.000000 
-0.233401 -0.048938 -0.785837 120 102 76 0.765333 0.637049 0.091840 0.000000 
-0.238913 -0.047463 -0.755338 117 103 83 0.886915 0.404220 0.223580 0.000000 
-0.231291 -0.051560 -0.779293 116 104 83 0.688457 -0.149796 0.709640 0.000000 
-0.238020 -0.047055 -0.745491 116 106 90 0.969645 0.078823 0.231464 0.000000 
-0.235216 -0.050021 -0.772526 115 100 76 0.715971 0.695884 0.055958 0.000000 
-0.236841 -0.050523 -0.763670 118 108 93 -0.911622 0.410558 0.019675 0.000000 
-0.238333 -0.044886 -0.766073 115 101 82 0.851406 0.417174 0.317920 0.000000 
-0.229703 -0.051340 -0.784938 112 100 82 0.739973 -0.292473 0.605723 0.000000 
-0.239011 -0.049204 -0.750619 117 105 86 -0.857493 0.498879 -0.125804 0.000000 
-0.239657 -0.043775 -0.747171 111 100 89 0.996140 0.086667 0.013910 0.000000 
-0.235698 -0.049626 -0.765856 117 103 81 0.867940 0.329113 0.371974 0.000000 
-0.226924 -0.052343 -0.809384 94 82 62 -0.829817 -0.288023 -0.477962 0.000000 
-0.233236 -0.049226 -0.779090 119 101 71 -0.516964 -0.731678 -0.444292 0.000000 
-0.233416 -0.050803 -0.776967 111 97 74 -0.866658 -0.415813 -0.275686 0.000000 
-0.236231 -0.046963 -0.778657 115 95 67 -0.809170 -0.510641 -0.290673 0.000000 
-0.237652 -0.049313 -0.759585 115 104 86 -0.989638 -0.139754 0.032950 0.000000 
-0.233823 -0.047149 -0.789959 119 101 77 -0.760707 -0.645230 -0.070730 0.000000 
-0.233707 -0.046681 -0.795021 120 103 79 0.815526 0.550216 0.179386 0.000000 
-0.235195 -0.049930 -0.771962 115 100 77 -0.841714 -0.539839 0.009519 0.000000 
-0.237612 -0.050022 -0.758549 114 106 93 0.993746 -0.003251 0.111620 0.000000 
-0.239265 -0.044362 -0.751131 120 104 79 0.996241 0.060146 0.062333 0.000000 
-0.232872 -0.051496 -0.774577 111 100 84 -0.998544 -0.047151 -0.026195 0.000000 
-0.241699 -0.041857 -0.745473 120 114 104 -0.659251 -0.751630 0.020995 0.000000 
-0.240589 -0.047537 -0.730895 105 104 97 0.888934 -0.407000 -0.210112 0.000000 
-0.238313 -0.046670 -0.768891 125 105 77 -0.928221 -0.366786 0.062235 0.000000 
-0.240305 -0.046333 -0.736049 120 108 90 0.993796 -0.064007 -0.090958 0.000000 
-0.239656 -0.046084 -0.752582 122 107 84 0.992943 0.118544 -0.003263 0.000000 
-0.238833 -0.048482 -0.754386 119 104 82 0.948288 0.160521 0.273830 0.000000 
-0.237223 -0.046254 -0.768105 119 101 85 -0.940817 -0.328560 0.083130 0.000000 
-0.229954 -0.051725 -0.792063 100 91 75 0.973206 -0.175911 -0.148069 0.000000 
-0.239848 -0.043851 -0.765915 119 108 92 -0.871738 -0.401757 -0.280472 0.000000 
-0.239830 -0.045644 -0.733348 102 97 87 -0.992236 0.039330 0.117990 0.000000 
-0.232846 -0.051757 -0.774526 117 106 89 0.985860 -0.158253 0.055096 0.000000 
-0.239892 -0.045701 -0.734009 119 109 93 -0.967160 0.159251 0.198093 0.000000 
-0.228858 -0.050496 -0.785268 108 96 78 -0.702792 0.401832 -0.587038 0.000000 
-0.237841 -0.049098 -0.755800 116 104 87 -0.917661 0.016921 -0.397002 0.000000 
-0.242376 -0.041929 -0.737446 109 104 95 -0.801963 -0.593253 -0.070047 0.000000 
-0.240241 -0.046107 -0.736015 119 107 90 -0.991986 0.016625 0.125245 0.000000 
-0.237515 -0.050323 -0.757841 120 109 93 0.956591 -0.202021 0.210049 0.000000 
-0.240588 -0.043825 -0.737325 123 111 93 0.956606 0.284052 -0.064963 0.000000 
-0.229666 -0.052360 -0.797547 111 102 87 0.916146 -0.356516 0.183229 0.000000 
-0.239339 -0.050404 -0.753608 119 113 103 -0.932327 0.357982 -0.051140 0.000000 
-0.238765 -0.048643 -0.754499 118 104 83 0.931229 0.129907 0.340494 0.000000 
-0.235195 -0.046220 -0.782864 113 94 70 -0.687196 -0.722064 -0.079907 0.000000 
-0.237083 -0.050724 -0.761611 114 108 98 0.938340 -0.021644 0.345034 0.000000 
-0.233956 -0.047284 -0.782110 115 98 75 -0.646127 -0.760740 -0.061604 0.000000 
-0.238623 -0.044832 -0.776433 131 114 94 -0.553710 -0.828419 0.084416 0.000000 
-0.236151 -0.049624 -0.774272 115 100 76 0.756799 0.650127 0.067752 0.000000 
-0.231732 -0.049599 -0.779326 113 99 82 0.643608 0.495730 0.583113 0.000000 
-0.238732 -0.046110 -0.761188 122 104 78 -0.926836 -0.344966 0.148238 0.000000 
-0.230221 -0.051821 -0.792080 100 89 74 0.976801 -0.184934 -0.107982 0.000000 
-0.232623 -0.049480 -0.785178 121 103 74 0.627715 0.773357 -0.088841 0.000000 
-0.229877 -0.051335 -0.787593 108 96 84 -0.732429 0.638327 0.236824 0.000000 
-0.240427 -0.043822 -0.740361 110 100 88 -0.990209 0.139231 -0.010025 0.000000 
-0.236203 -0.047106 -0.773705 107 92 75 0.913705 0.356045 0.195896 0.000000 
-0.238865 -0.047805 -0.730120 99 96 90 0.976334 -0.125938 -0.175815 0.000000 
-0.237581 -0.045231 -0.783942 129 116 98 -0.535186 -0.835590 -0.123953 0.000000 
-0.237937 -0.045186 -0.767133 116 100 79 -0.928063 -0.355689 -0.110386 0.000000 
-0.230530 -0.048489 -0.793220 116 102 83 0.570092 0.821320 0.020706 0.000000 
-0.230209 -0.046859 -0.807139 119 102 79 -0.681415 -0.729986 -0.052856 0.000000 
-0.239289 -0.044220 -0.751004 116 103 83 -0.993386 -0.093588 -0.066526 0.000000 
-0.234971 -0.050953 -0.770158 117 106 87 0.896068 -0.113943 0.429044 0.000000 
-0.232776 -0.052657 -0.777028 115 105 91 0.965557 0.228176 0.125045 0.000000 
-0.241569 -0.048134 -0.738821 122 118 109 0.902362 -0.430881 0.009168 0.000000 
-0.238687 -0.048032 -0.765321 125 105 77 0.806186 0.411908 0.424730 0.000000 
-0.241159 -0.042438 -0.739618 114 104 91 -0.849614 -0.521643 -0.077752 0.000000 
-0.242269 -0.042668 -0.757638 130 122 110 -0.744925 -0.664548 0.058848 0.000000 
-0.231545 -0.047085 -0.805538 117 102 78 0.653984 0.755684 0.035312 0.000000 
-0.237617 -0.046528 -0.772033 119 103 77 -0.860765 -0.444805 -0.247451 0.000000 
