ply
format ascii 1.0
comment Created by Open3D
obj_info Generated by CloudCompare!
element vertex 611
property float x
property float y
property float z
property uchar red
property uchar green
property uchar blue
property float nx
property float ny
property float nz
property float scalar_leaf7
end_header
-0.095209 -0.041147 -0.507129 76 59 46 -0.976615 0.029739 0.212928 0.000000 
-0.114495 -0.071286 -0.599418 81 64 34 0.746664 -0.635819 -0.195518 0.000000 
-0.080592 -0.008216 -0.449313 116 102 84 0.464233 -0.735174 0.493971 0.000000 
-0.069476 0.025749 -0.404601 102 85 71 0.958132 -0.237214 -0.160351 0.000000 
-0.094933 -0.039722 -0.511488 61 57 44 -0.848620 0.517240 -0.110940 0.000000 
-0.072545 0.019412 -0.410484 101 92 75 0.865581 -0.074353 -0.495219 0.000000 
-0.091538 -0.041340 -0.514244 77 64 50 0.316208 0.765640 -0.560185 0.000000 
-0.079717 -0.004723 -0.444335 125 107 85 -0.091424 -0.799600 0.593533 0.000000 
-0.081071 -0.003968 -0.444507 129 111 89 -0.666404 -0.643368 0.376806 0.000000 
-0.107685 -0.059972 -0.585437 84 76 59 -0.665314 -0.675027 0.318898 0.000000 
-0.103424 -0.055783 -0.541696 113 96 76 -0.873083 0.361118 0.327597 0.000000 
-0.093022 -0.049945 -0.528699 101 91 82 -0.673041 0.646840 -0.358628 0.000000 
-0.077667 0.002430 -0.439502 71 60 45 0.477187 0.668063 -0.570951 0.000000 
-0.072620 0.013908 -0.417347 101 87 74 0.235127 -0.777011 0.583926 0.000000 
-0.100965 -0.059330 -0.560899 89 76 55 0.942371 0.139260 -0.304209 0.000000 
-0.091886 -0.039685 -0.511882 63 51 35 -0.425644 -0.744467 0.514389 0.000000 
-0.083489 -0.015014 -0.470381 82 79 70 -0.534355 -0.678413 0.504203 0.000000 
-0.067626 0.047679 -0.382458 99 86 72 0.422746 -0.824909 0.375247 0.000000 
-0.085980 -0.030374 -0.492315 92 85 69 -0.922319 -0.335775 0.191264 0.000000 
-0.092921 -0.033502 -0.493961 109 83 61 -0.875997 0.480913 0.036784 0.000000 
-0.098547 -0.048925 -0.523632 72 60 42 -0.977274 0.202739 0.061914 0.000000 
-0.104963 -0.063194 -0.576710 92 80 56 0.786191 0.269416 -0.556163 0.000000 
-0.073322 0.017203 -0.415698 109 94 72 -0.927829 -0.139243 0.346040 0.000000 
-0.086926 -0.027129 -0.480270 116 99 76 0.045225 -0.939396 0.339837 0.000000 
-0.077326 0.011439 -0.431590 91 78 58 -0.621362 -0.463928 0.631411 0.000000 
-0.092252 -0.032174 -0.494727 86 70 51 -0.831715 0.547295 0.093370 0.000000 
-0.105749 -0.062456 -0.552560 114 106 96 0.023816 -0.951380 0.307099 0.000000 
-0.096598 -0.056836 -0.543516 86 69 47 -0.583960 0.811440 -0.023580 0.000000 
-0.091674 -0.043373 -0.513472 88 70 49 -0.292209 0.848797 -0.440633 0.000000 
-0.086183 -0.028876 -0.491242 85 71 60 -0.625807 -0.730904 0.272298 0.000000 
-0.096195 -0.055723 -0.540536 105 85 63 -0.398001 0.847508 -0.351177 0.000000 
-0.108860 -0.063074 -0.578866 87 68 40 -0.283192 0.921454 0.265942 0.000000 
-0.091177 -0.036603 -0.498019 95 74 54 -0.674358 0.735007 -0.070757 0.000000 
-0.085909 -0.033234 -0.494916 98 77 57 0.796673 -0.554410 0.240710 0.000000 
-0.072968 0.025691 -0.411152 123 119 113 0.911545 -0.307737 -0.272734 0.000000 
-0.079345 0.005983 -0.436150 78 65 53 -0.625664 0.777427 0.064428 0.000000 
-0.079702 -0.003976 -0.443014 120 92 61 -0.262647 -0.822132 0.505090 0.000000 
-0.087802 -0.035449 -0.497769 103 87 67 -0.352153 0.843603 -0.405367 0.000000 
-0.086737 -0.036254 -0.500728 88 80 66 0.852314 -0.519226 -0.062979 0.000000 
-0.068321 0.039074 -0.395862 106 91 77 0.385258 -0.794695 0.469080 0.000000 
-0.084520 -0.024375 -0.476289 111 94 75 0.429022 -0.805018 0.409740 0.000000 
-0.070266 0.032777 -0.399011 123 99 74 0.186935 -0.968193 0.166307 0.000000 
-0.087638 -0.033582 -0.494004 109 88 70 0.358455 -0.792458 0.493478 0.000000 
-0.102016 -0.056830 -0.540349 94 81 63 0.308707 0.848558 -0.429708 0.000000 
-0.085280 -0.029510 -0.486076 129 104 76 0.546800 -0.749197 0.373783 0.000000 
-0.098429 -0.057844 -0.543194 88 69 52 0.246527 -0.952430 0.179170 0.000000 
-0.075320 0.003674 -0.432254 91 85 74 0.834278 -0.405311 0.373769 0.000000 
-0.077795 0.004156 -0.431882 112 99 80 0.917509 0.351356 -0.186347 0.000000 
-0.070731 0.020738 -0.410891 76 65 55 -0.994173 -0.077337 0.075095 0.000000 
-0.072960 0.018450 -0.414383 109 92 70 -0.986471 -0.047639 0.156859 0.000000 
-0.080869 -0.002219 -0.448805 78 67 48 -0.433001 -0.701761 0.565722 0.000000 
-0.103613 -0.063085 -0.556083 94 75 58 -0.396316 0.910831 -0.115418 0.000000 
-0.112896 -0.065400 -0.606329 90 78 53 -0.836233 0.547877 0.023343 0.000000 
-0.075276 0.007796 -0.430348 76 66 57 0.782483 0.508211 -0.359781 0.000000 
-0.072195 0.016628 -0.417908 70 61 50 -0.955525 -0.183087 0.231197 0.000000 
-0.092032 -0.050213 -0.529197 76 65 51 0.095096 -0.653965 0.750524 0.000000 
-0.096246 -0.054513 -0.535985 117 91 68 -0.224194 0.921050 -0.318441 0.000000 
-0.074869 0.016639 -0.423247 73 68 58 -0.636945 -0.650249 0.414097 0.000000 
-0.070101 0.023763 -0.405377 103 84 71 0.572097 -0.682179 0.455342 0.000000 
-0.083445 -0.015090 -0.459837 132 112 91 -0.025862 -0.864328 0.502263 0.000000 
-0.100740 -0.059502 -0.555148 88 73 48 -0.659957 0.751272 -0.006918 0.000000 
-0.106737 -0.060070 -0.584169 75 66 54 0.944766 0.264644 -0.193341 0.000000 
-0.095419 -0.043322 -0.508540 124 108 98 -0.434399 -0.755690 0.490133 0.000000 
-0.079472 0.005644 -0.434841 126 111 93 0.963798 0.085078 -0.252695 0.000000 
-0.075778 0.006924 -0.426603 111 100 81 0.369537 0.668451 -0.645458 0.000000 
-0.082548 -0.018773 -0.472402 89 72 60 -0.906467 -0.237929 0.348866 0.000000 
-0.113225 -0.063841 -0.590456 84 63 41 -0.604315 0.683787 0.408948 0.000000 
-0.110751 -0.067476 -0.593457 89 76 50 -0.979395 0.127210 0.156851 0.000000 
-0.066609 0.047264 -0.380581 111 102 90 0.888606 -0.070262 -0.453258 0.000000 
-0.093807 -0.049249 -0.525020 94 75 57 0.172262 -0.948117 0.267209 0.000000 
-0.082420 -0.013405 -0.457052 125 115 102 0.310961 -0.832875 0.457847 0.000000 
-0.087689 -0.028921 -0.484720 112 96 74 0.286786 -0.813345 0.506186 0.000000 
-0.081777 -0.007838 -0.457412 66 57 45 0.167819 0.902207 -0.397315 0.000000 
-0.070071 0.024901 -0.410048 78 68 60 0.986801 -0.042804 0.156176 0.000000 
-0.089532 -0.037426 -0.502077 105 89 67 -0.149971 0.898400 -0.412778 0.000000 
-0.101563 -0.054149 -0.533943 102 89 70 -0.703117 -0.550193 0.450460 0.000000 
-0.074241 0.010374 -0.421079 121 117 112 -0.423598 0.696030 -0.579748 0.000000 
-0.075560 0.009857 -0.422651 132 124 118 -0.769720 -0.469022 0.433070 0.000000 
-0.099633 -0.059065 -0.552858 97 84 60 -0.676535 0.676535 0.290862 0.000000 
-0.101201 -0.055888 -0.555475 82 64 43 0.749655 0.629092 -0.205575 0.000000 
-0.096969 -0.044875 -0.518885 59 53 42 -0.820730 0.566660 -0.072795 0.000000 
-0.101787 -0.059202 -0.544495 99 84 68 -0.242131 -0.825096 0.510480 0.000000 
-0.103233 -0.056742 -0.563073 70 60 44 -0.696700 -0.693624 0.183018 0.000000 
-0.082883 -0.011967 -0.455823 117 95 76 0.185757 0.729212 -0.658593 0.000000 
-0.086629 -0.018419 -0.466966 115 97 74 -0.674264 -0.667796 0.315303 0.000000 
-0.108277 -0.064370 -0.587828 88 76 53 -0.941995 -0.001248 0.335625 0.000000 
-0.084234 -0.012245 -0.456954 125 104 80 -0.518539 -0.478523 0.708614 0.000000 
-0.080989 -0.005207 -0.452062 56 49 35 0.402408 0.819131 -0.408770 0.000000 
-0.086929 -0.034957 -0.498026 104 95 78 -0.876819 0.471484 -0.094297 0.000000 
-0.072429 0.018902 -0.410693 110 100 88 -0.682683 -0.508238 0.525012 0.000000 
-0.070002 0.022826 -0.406551 96 87 72 -0.210363 -0.889996 0.404543 0.000000 
-0.076917 0.009847 -0.425740 106 94 73 -0.802730 -0.112999 0.585538 0.000000 
-0.095688 -0.055542 -0.541652 96 84 61 -0.663897 0.746351 -0.046913 0.000000 
-0.067569 0.029540 -0.397453 144 127 111 -0.504603 0.805151 -0.311620 0.000000 
-0.085711 -0.011359 -0.457517 86 78 65 0.984325 0.014931 -0.175731 0.000000 
-0.110510 -0.071452 -0.578987 116 102 76 -0.803485 0.594607 0.029243 0.000000 
-0.082074 -0.007071 -0.449486 120 108 90 0.695538 0.538750 -0.475368 0.000000 
-0.097723 -0.052091 -0.533633 87 76 54 0.508018 0.851548 -0.129552 0.000000 
-0.097322 -0.053687 -0.534308 89 72 51 0.435160 -0.847091 0.305077 0.000000 
-0.082410 -0.015308 -0.460813 113 97 78 0.262055 -0.792441 0.550786 0.000000 
-0.101025 -0.055500 -0.536322 111 93 70 0.277593 0.883796 -0.376626 0.000000 
-0.078767 -0.002073 -0.439730 129 123 114 -0.080896 0.937601 -0.338173 0.000000 
-0.086031 -0.029493 -0.485618 114 101 85 0.303355 -0.786183 0.538416 0.000000 
-0.077428 0.000623 -0.435789 129 111 93 0.008989 0.923305 -0.383961 0.000000 
-0.084239 -0.011986 -0.464057 62 53 38 -0.520730 0.791446 -0.320082 0.000000 
-0.080997 -0.012870 -0.458789 110 91 75 0.632538 -0.672175 0.384808 0.000000 
-0.101621 -0.053068 -0.543523 82 72 45 0.371327 0.895030 -0.247058 0.000000 
-0.069753 0.023706 -0.406319 91 74 62 0.987728 -0.061806 0.143436 0.000000 
-0.075044 0.005875 -0.428602 102 88 77 -0.470026 0.747095 -0.470026 0.000000 
-0.087626 -0.027936 -0.481740 114 95 77 -0.078577 0.894674 -0.439755 0.000000 
-0.070103 0.031441 -0.400409 117 93 68 0.688549 -0.301543 0.659524 0.000000 
-0.099066 -0.054861 -0.535154 114 101 79 0.546628 -0.826572 0.134079 0.000000 
-0.093520 -0.037340 -0.504304 99 83 62 0.885687 -0.405013 0.226985 0.000000 
-0.110659 -0.071004 -0.573928 108 84 54 0.629146 -0.675382 -0.384753 0.000000 
-0.075656 0.014426 -0.426280 58 52 39 -0.190467 -0.577495 0.793865 0.000000 
-0.084298 -0.009141 -0.454411 111 91 73 -0.660480 -0.489058 0.569727 0.000000 
-0.080790 -0.012944 -0.459458 102 89 73 0.679723 -0.613570 0.401880 0.000000 
-0.088263 -0.022622 -0.474234 108 93 71 0.729777 0.468315 -0.498102 0.000000 
-0.096353 -0.049694 -0.522702 92 73 57 -0.414740 0.831058 -0.370585 0.000000 
-0.097620 -0.057258 -0.546264 95 76 58 0.436066 -0.899798 0.014492 0.000000 
-0.072636 0.013061 -0.418271 103 96 83 -0.795541 0.364824 -0.483753 0.000000 
-0.088627 -0.037499 -0.502460 102 79 61 -0.322803 0.840536 -0.435083 0.000000 
-0.086920 -0.028860 -0.491425 86 78 61 0.557500 0.804939 -0.203144 0.000000 
-0.080591 -0.004845 -0.445382 119 106 87 0.409091 0.584653 -0.700589 0.000000 
-0.078080 0.010088 -0.429459 98 85 68 -0.941187 0.091596 0.325234 0.000000 
-0.096772 -0.056346 -0.545845 80 66 49 -0.896566 0.380050 0.227443 0.000000 
-0.105867 -0.060568 -0.577688 73 56 33 -0.841696 0.509801 0.177907 0.000000 
-0.100995 -0.057209 -0.541034 106 92 73 0.057337 -0.974724 0.215928 0.000000 
-0.080105 -0.013757 -0.461823 89 75 62 0.845076 -0.482683 0.229922 0.000000 
-0.068860 0.029375 -0.397827 127 111 91 -0.245655 0.823486 -0.511395 0.000000 
-0.100428 -0.055339 -0.542752 63 50 31 0.353293 0.862405 -0.362549 0.000000 
-0.095688 -0.050680 -0.531433 99 89 69 0.309395 -0.860457 0.404831 0.000000 
-0.098155 -0.051553 -0.531607 74 57 41 -0.007706 0.991923 -0.126605 0.000000 
-0.094631 -0.038697 -0.509369 73 64 50 0.978231 -0.183341 0.097208 0.000000 
-0.095948 -0.042902 -0.509607 87 75 60 -0.952308 0.173269 0.251173 0.000000 
-0.066894 0.046108 -0.383377 104 86 72 -0.765192 -0.570300 0.298728 0.000000 
-0.086885 -0.017864 -0.467813 98 86 63 0.990034 0.044534 -0.133603 0.000000 
-0.112268 -0.067115 -0.599246 88 71 42 -0.981678 0.185467 -0.043709 0.000000 
-0.075648 0.003343 -0.431693 114 112 104 0.495238 -0.656400 0.569104 0.000000 
-0.068331 0.041009 -0.385454 110 92 78 0.563411 0.607402 -0.560028 0.000000 
-0.114208 -0.070619 -0.605104 100 82 52 0.878743 -0.278846 0.387370 0.000000 
-0.088475 -0.031030 -0.488317 101 83 61 -0.506325 0.809173 -0.298117 0.000000 
-0.078211 -0.001486 -0.439375 119 112 104 -0.244164 0.879291 -0.408938 0.000000 
-0.112145 -0.069261 -0.591800 87 68 37 0.846511 -0.532286 0.009481 0.000000 
-0.072750 0.012650 -0.418909 97 91 80 -0.372296 0.806908 -0.458579 0.000000 
-0.082104 -0.018992 -0.469098 103 94 78 0.886992 -0.428253 0.172753 0.000000 
-0.079896 -0.006912 -0.448557 115 103 93 -0.468943 0.805045 -0.363311 0.000000 
-0.082563 -0.019845 -0.471728 94 73 55 -0.934460 0.355681 0.016573 0.000000 
-0.075717 0.009927 -0.423203 116 105 89 0.854147 0.382893 -0.351890 0.000000 
-0.097143 -0.052889 -0.532268 95 83 62 0.415120 -0.884900 0.211253 0.000000 
-0.080601 -0.014052 -0.466065 75 69 59 0.774920 0.388272 -0.498743 0.000000 
-0.107002 -0.061304 -0.580491 75 60 38 -0.740086 0.667386 0.082878 0.000000 
-0.089932 -0.035698 -0.494511 126 105 83 -0.652703 0.754010 -0.073809 0.000000 
-0.105005 -0.060386 -0.574020 73 56 38 0.948841 -0.268591 -0.166013 0.000000 
-0.081475 -0.002166 -0.444601 112 96 75 -0.961613 -0.051403 0.269552 0.000000 
-0.072053 0.021617 -0.410047 97 84 62 0.957029 -0.227610 -0.179692 0.000000 
-0.079145 0.007921 -0.431272 120 95 70 0.986489 0.033460 -0.160377 0.000000 
-0.114777 -0.069230 -0.584773 99 87 63 0.836541 -0.493972 0.237045 0.000000 
-0.097219 -0.056913 -0.548458 94 75 54 0.743806 -0.667300 0.038253 0.000000 
-0.073013 0.015923 -0.419676 68 58 43 -0.771426 -0.378405 0.511577 0.000000 
-0.089313 -0.041596 -0.511825 105 96 81 -0.773448 0.546057 -0.321870 0.000000 
-0.071917 0.022895 -0.406662 107 91 72 0.680261 0.559920 -0.473007 0.000000 
-0.070257 0.036375 -0.394976 114 85 64 0.995688 0.089926 -0.022752 0.000000 
-0.092756 -0.038735 -0.500602 108 86 61 -0.142518 -0.844826 0.515711 0.000000 
-0.107557 -0.067302 -0.566165 102 84 61 -0.519949 0.839917 -0.155540 0.000000 
-0.082665 -0.014136 -0.457756 134 115 98 0.091007 -0.816172 0.570598 0.000000 
-0.081161 -0.016470 -0.468426 100 89 70 -0.819698 -0.153229 0.551920 0.000000 
-0.112233 -0.069636 -0.593028 105 86 58 -0.789774 0.607852 -0.082298 0.000000 
-0.070335 0.032914 -0.397406 122 95 72 0.995772 -0.067118 -0.062717 0.000000 
-0.095227 -0.047448 -0.519607 93 74 60 0.618853 -0.755342 0.215590 0.000000 
-0.108934 -0.066579 -0.569822 83 65 45 -0.443815 -0.167340 0.880355 0.000000 
-0.075613 0.013023 -0.421020 110 93 78 0.895390 0.144233 -0.421276 0.000000 
-0.078028 0.001476 -0.440832 72 61 46 0.497209 0.611820 -0.615191 0.000000 
-0.079394 -0.001265 -0.439768 124 108 86 0.615842 0.602344 -0.507859 0.000000 
-0.114429 -0.068206 -0.608046 94 76 44 0.998503 -0.054614 0.003091 0.000000 
-0.070314 0.027019 -0.411181 109 107 104 -0.932990 -0.032351 0.358444 0.000000 
-0.068071 0.030620 -0.398154 105 79 62 0.931771 -0.344143 -0.115621 0.000000 
-0.097701 -0.056166 -0.548097 88 79 60 0.712542 0.628523 -0.311838 0.000000 
-0.069796 0.032600 -0.394779 119 100 82 0.613565 0.532433 -0.583141 0.000000 
-0.087231 -0.018169 -0.473830 89 80 60 -0.862651 0.481854 -0.153783 0.000000 
-0.070013 0.036093 -0.398158 99 78 62 0.685442 -0.592501 0.423215 0.000000 
-0.095999 -0.055401 -0.543977 96 86 67 0.981807 -0.048557 -0.183571 0.000000 
-0.092625 -0.048667 -0.527553 91 79 67 0.465802 -0.843977 0.265953 0.000000 
-0.102259 -0.060991 -0.562232 95 80 57 0.464637 -0.841287 0.276313 0.000000 
-0.069923 0.024193 -0.404915 117 102 84 -0.666577 0.653474 -0.358674 0.000000 
-0.097811 -0.055127 -0.539071 96 84 62 0.285214 -0.802066 0.524731 0.000000 
-0.066582 0.043252 -0.384802 87 69 59 -0.977058 0.209284 0.039465 0.000000 
-0.099716 -0.060196 -0.550301 108 96 71 -0.650600 0.759266 -0.015325 0.000000 
-0.095743 -0.048294 -0.519759 116 101 80 0.646306 -0.710139 0.279268 0.000000 
-0.083458 -0.022634 -0.477733 70 56 39 -0.816095 -0.542544 0.199085 0.000000 
-0.075517 0.002728 -0.433712 95 87 77 0.509806 -0.810984 0.287060 0.000000 
-0.098287 -0.057270 -0.552094 87 76 58 0.814513 0.179827 -0.551572 0.000000 
-0.072786 0.017343 -0.413326 99 87 73 -0.860291 -0.198299 0.469656 0.000000 
-0.094770 -0.044430 -0.511422 123 103 80 0.102188 0.891696 -0.440949 0.000000 
-0.083188 -0.022492 -0.475753 93 75 56 0.904399 -0.408031 0.124793 0.000000 
-0.082942 -0.011132 -0.453426 111 96 82 -0.107538 -0.767496 0.631969 0.000000 
-0.089114 -0.038699 -0.508308 84 77 63 0.763566 0.436557 -0.475798 0.000000 
-0.095438 -0.052930 -0.533468 91 78 57 0.201794 -0.914513 0.350635 0.000000 
-0.098228 -0.048457 -0.522493 75 61 45 0.964907 -0.167980 -0.201836 0.000000 
-0.082499 -0.014327 -0.458605 136 116 96 0.087030 -0.840343 0.535023 0.000000 
-0.072873 0.017656 -0.413973 107 92 70 -0.982042 -0.090594 0.165486 0.000000 
-0.102170 -0.058091 -0.543541 111 96 76 -0.655590 -0.691027 0.304439 0.000000 
-0.080671 0.000755 -0.438574 125 113 99 -0.857049 -0.373506 0.354908 0.000000 
-0.098422 -0.047150 -0.521895 103 90 72 0.893629 -0.448789 0.003948 0.000000 
-0.078272 0.005009 -0.432364 110 91 73 -0.834441 -0.353577 0.422720 0.000000 
-0.102869 -0.059176 -0.569023 94 84 62 0.991428 -0.108885 -0.072208 0.000000 
-0.070360 0.020244 -0.408727 117 114 107 0.663917 -0.740466 0.104519 0.000000 
-0.105182 -0.060280 -0.581726 84 79 62 -0.985031 0.159639 0.065038 0.000000 
-0.108810 -0.061434 -0.591609 78 67 52 0.930443 0.324056 -0.171068 0.000000 
-0.076952 0.005912 -0.433788 81 71 54 -0.530969 -0.688417 0.494119 0.000000 
-0.085961 -0.018588 -0.465546 116 98 74 0.069033 0.944315 -0.321719 0.000000 
-0.073232 0.017661 -0.423528 104 97 81 -0.881181 -0.275651 0.384105 0.000000 
-0.086484 -0.021386 -0.470839 111 93 73 0.336179 0.729201 -0.596028 0.000000 
-0.106629 -0.064803 -0.561508 110 95 70 0.107920 0.924833 -0.364742 0.000000 
-0.085182 -0.028215 -0.486952 89 77 65 -0.923875 -0.113602 0.365444 0.000000 
-0.084732 -0.017095 -0.463477 129 108 82 -0.164878 -0.944304 0.284790 0.000000 
-0.069067 0.035174 -0.390264 120 101 82 -0.156379 -0.693838 0.702947 0.000000 
-0.076466 -0.002989 -0.444751 83 78 68 -0.957472 0.274484 0.088917 0.000000 
-0.108111 -0.058747 -0.574877 91 76 56 0.613758 -0.771365 -0.168215 0.000000 
-0.084333 -0.027075 -0.482525 101 84 71 0.896178 -0.412846 -0.162549 0.000000 
-0.088210 -0.021692 -0.472635 126 111 91 0.770476 0.381183 -0.510947 0.000000 
-0.070428 0.028613 -0.398763 103 85 72 0.258871 0.694030 -0.671795 0.000000 
-0.081766 0.002457 -0.436742 123 94 67 -0.932812 -0.345934 0.100954 0.000000 
-0.094007 -0.046519 -0.508467 95 86 72 0.767167 0.566204 -0.301444 0.000000 
-0.103268 -0.055771 -0.561122 86 75 60 -0.261221 -0.964414 0.040855 0.000000 
-0.085251 -0.026109 -0.479005 117 102 81 -0.322901 0.699348 -0.637689 0.000000 
-0.098131 -0.048134 -0.519224 122 99 77 0.758649 0.323755 -0.565363 0.000000 
-0.087975 -0.019978 -0.472200 76 62 48 -0.968915 0.139883 0.204050 0.000000 
-0.112570 -0.069537 -0.576562 115 100 82 0.862556 0.312119 -0.398221 0.000000 
-0.101702 -0.053014 -0.537358 59 50 35 -0.480228 0.857869 0.182873 0.000000 
-0.112873 -0.072939 -0.586029 103 84 56 0.652973 -0.745615 0.132985 0.000000 
-0.072112 0.021319 -0.409376 98 80 64 0.961322 -0.041040 -0.272354 0.000000 
-0.108862 -0.060970 -0.591251 78 71 54 -0.859663 -0.353434 0.368868 0.000000 
-0.091911 -0.033264 -0.490204 101 86 70 -0.434921 -0.621554 0.651548 0.000000 
-0.089691 -0.041825 -0.511866 93 74 56 0.619245 -0.545003 0.565251 0.000000 
-0.086946 -0.024283 -0.475148 120 103 91 0.079156 0.804515 -0.588634 0.000000 
-0.084487 -0.026079 -0.483086 94 83 67 -0.958711 -0.218793 0.181665 0.000000 
-0.094247 -0.044414 -0.509800 119 105 92 -0.381692 0.857647 -0.344604 0.000000 
-0.080334 -0.001266 -0.446395 54 48 36 -0.319877 -0.763525 0.560990 0.000000 
-0.079775 -0.009753 -0.454575 109 100 89 0.721693 -0.496060 0.482788 0.000000 
-0.070620 0.033839 -0.393452 119 104 94 0.618368 0.706473 -0.344263 0.000000 
-0.071648 0.023239 -0.414431 76 68 61 -0.655337 -0.638747 0.403157 0.000000 
-0.109611 -0.063080 -0.592549 77 67 49 0.735422 -0.652514 -0.182704 0.000000 
-0.084902 -0.021809 -0.471131 116 96 78 0.248215 -0.913023 0.323695 0.000000 
-0.083327 -0.021187 -0.472039 102 82 65 0.615180 -0.733422 0.289214 0.000000 
-0.088812 -0.036023 -0.498429 108 85 61 0.119915 -0.939108 0.322019 0.000000 
-0.075646 0.002886 -0.432758 103 88 80 -0.670576 0.739501 -0.058873 0.000000 
-0.074325 0.011995 -0.424194 84 76 63 -0.857174 -0.286747 0.427820 0.000000 
-0.092745 -0.030650 -0.489848 108 95 75 -0.924288 0.380895 -0.024700 0.000000 
-0.107677 -0.067307 -0.583762 99 84 60 0.706920 -0.698028 -0.114115 0.000000 
-0.105059 -0.062558 -0.553971 105 91 79 0.009534 -0.837627 -0.546160 0.000000 
-0.067467 0.038825 -0.391132 108 84 68 -0.962680 -0.152827 0.223363 0.000000 
-0.107859 -0.064387 -0.585894 91 77 52 -0.965762 -0.135750 0.221078 0.000000 
-0.093708 -0.039126 -0.501550 102 82 66 -0.506804 -0.601093 0.617930 0.000000 
-0.082412 -0.015755 -0.461032 123 111 100 -0.236223 0.764987 -0.599161 0.000000 
-0.103017 -0.060824 -0.547257 110 96 81 -0.408250 -0.792295 0.453432 0.000000 
-0.078853 0.009337 -0.432814 103 96 85 -0.853452 0.505696 -0.126062 0.000000 
-0.115138 -0.063446 -0.607258 68 56 37 -0.028421 -0.960150 -0.278036 0.000000 
-0.078641 -0.001926 -0.440484 115 104 87 0.011213 0.948124 -0.317703 0.000000 
-0.095472 -0.051162 -0.527586 99 86 71 -0.386080 0.891978 -0.235198 0.000000 
-0.090543 -0.043406 -0.517658 85 78 63 -0.879719 -0.343711 0.328570 0.000000 
-0.084419 -0.007877 -0.452916 98 85 72 -0.899016 0.131667 0.417653 0.000000 
-0.077817 0.004080 -0.432145 120 104 84 -0.711606 -0.593279 0.376346 0.000000 
-0.080785 -0.004772 -0.445314 123 111 92 -0.729953 -0.441945 0.521395 0.000000 
-0.085323 -0.016574 -0.463280 109 96 80 0.326564 0.794906 -0.511352 0.000000 
-0.109246 -0.062360 -0.589891 77 66 48 -0.873968 0.485835 -0.012045 0.000000 
-0.084428 -0.021256 -0.470817 116 104 85 -0.110751 0.895824 -0.430388 0.000000 
-0.090367 -0.043599 -0.518454 59 49 35 0.817082 0.531946 -0.222283 0.000000 
-0.096475 -0.050200 -0.524176 90 73 54 0.516140 -0.849690 0.107829 0.000000 
-0.085530 -0.020186 -0.469012 111 93 75 0.159149 -0.662362 0.732085 0.000000 
-0.090392 -0.039609 -0.506661 93 78 56 0.332886 -0.804341 0.492161 0.000000 
-0.067127 0.043942 -0.382304 116 99 85 0.556090 -0.549329 0.623700 0.000000 
-0.069149 0.042617 -0.389159 100 84 72 -0.824155 0.508718 -0.248947 0.000000 
-0.091844 -0.032303 -0.489078 99 84 69 0.490073 0.402153 -0.773371 0.000000 
-0.072625 0.017639 -0.413134 102 89 68 -0.838449 -0.240652 0.488968 0.000000 
-0.106785 -0.060785 -0.583049 74 60 43 0.929758 -0.367519 -0.021922 0.000000 
-0.089276 -0.023865 -0.476841 114 95 71 0.745047 0.504921 -0.435844 0.000000 
-0.097309 -0.051463 -0.532168 76 60 42 -0.351365 -0.935686 0.032176 0.000000 
-0.101913 -0.054877 -0.550262 78 68 48 0.627736 0.720853 -0.293800 0.000000 
-0.110649 -0.069188 -0.582596 101 78 50 -0.807163 0.557870 0.193050 0.000000 
-0.079449 0.008096 -0.433006 87 74 58 0.950986 -0.308664 0.018745 0.000000 
-0.076394 -0.001379 -0.440182 115 110 100 0.603124 -0.740707 0.295963 0.000000 
-0.068205 0.040025 -0.386048 110 93 80 -0.413891 -0.620006 0.666548 0.000000 
-0.076634 0.013976 -0.421764 104 90 73 -0.922858 -0.181754 0.339556 0.000000 
-0.080141 -0.012692 -0.460246 89 75 56 0.794674 -0.551119 0.254483 0.000000 
-0.068819 0.029038 -0.398536 124 106 87 -0.323755 0.758649 -0.565363 0.000000 
-0.112973 -0.062283 -0.592405 87 71 48 -0.762432 0.634617 0.126329 0.000000 
-0.106078 -0.062870 -0.562100 105 76 48 0.439817 0.897119 -0.041695 0.000000 
-0.092375 -0.047282 -0.521946 98 82 66 0.388917 -0.844996 0.367050 0.000000 
-0.096803 -0.051535 -0.527156 90 74 55 -0.295577 0.929158 -0.222036 0.000000 
-0.110651 -0.061359 -0.585968 85 69 51 -0.737718 0.630757 0.240663 0.000000 
-0.080040 -0.006255 -0.446696 122 109 89 0.323679 0.816304 -0.478414 0.000000 
-0.095574 -0.044126 -0.516712 90 72 51 0.851667 -0.523998 -0.009478 0.000000 
-0.093299 -0.041974 -0.516452 69 58 46 -0.281847 -0.801454 0.527479 0.000000 
-0.089920 -0.026218 -0.481632 94 75 53 0.962213 -0.180333 -0.204026 0.000000 
-0.092378 -0.050955 -0.530681 92 80 65 -0.613622 0.788539 -0.040908 0.000000 
-0.084122 -0.023323 -0.473689 124 94 73 0.324022 -0.814007 0.482082 0.000000 
-0.107254 -0.062962 -0.582636 74 58 36 -0.992515 -0.098910 0.071625 0.000000 
-0.074947 0.011611 -0.426033 76 67 57 -0.844020 -0.315536 0.433668 0.000000 
-0.078926 -0.009700 -0.455896 101 94 81 0.877988 -0.474252 0.064985 0.000000 
-0.081418 -0.005402 -0.452932 63 52 35 -0.132722 -0.762036 0.633787 0.000000 
-0.091292 -0.046134 -0.519491 103 85 64 0.230970 -0.947115 0.222770 0.000000 
-0.070668 0.030566 -0.401544 120 87 60 0.759230 -0.427989 -0.490302 0.000000 
-0.107520 -0.064233 -0.582501 85 67 40 -0.958561 -0.121618 0.257622 0.000000 
-0.084802 -0.023419 -0.474800 111 100 81 0.130388 -0.878325 0.459939 0.000000 
-0.081975 -0.002535 -0.444645 131 116 98 -0.794258 -0.210471 0.569961 0.000000 
-0.083685 -0.023852 -0.480663 65 52 36 -0.858993 -0.419508 0.293502 0.000000 
-0.091076 -0.038537 -0.503716 100 86 61 0.354818 -0.921406 0.158476 0.000000 
-0.090002 -0.027962 -0.488652 78 59 39 -0.921695 0.382817 -0.062691 0.000000 
-0.104039 -0.062582 -0.570872 89 77 52 -0.937461 0.281933 0.204158 0.000000 
-0.069234 0.033544 -0.392810 137 117 95 0.292920 0.786925 -0.543089 0.000000 
-0.072532 0.013309 -0.418795 86 77 67 -0.946065 0.322146 0.034379 0.000000 
-0.107106 -0.061249 -0.585456 63 54 34 0.969797 -0.155014 -0.188322 0.000000 
-0.074997 0.010507 -0.427084 74 66 53 0.849098 0.304685 -0.431509 0.000000 
-0.114550 -0.071346 -0.599517 98 78 49 -0.762543 0.614656 0.201804 0.000000 
-0.110326 -0.070216 -0.578757 97 74 49 -0.900239 0.431844 0.055503 0.000000 
-0.107476 -0.061387 -0.588119 79 71 50 -0.907813 0.283050 0.309448 0.000000 
-0.077168 0.013625 -0.426717 81 72 60 -0.749883 0.597041 -0.284987 0.000000 
-0.073735 0.012583 -0.424013 80 68 55 -0.870391 -0.294195 0.394801 0.000000 
-0.105751 -0.064632 -0.572691 91 74 45 0.283873 -0.957599 0.049205 0.000000 
-0.094059 -0.043671 -0.510210 95 77 64 0.639481 -0.701001 0.315693 0.000000 
-0.108659 -0.068754 -0.572757 91 67 44 -0.799081 0.600361 -0.032187 0.000000 
-0.080920 -0.009252 -0.450849 131 114 96 0.323550 0.761388 -0.561786 0.000000 
-0.086460 -0.016613 -0.469402 72 57 42 0.898979 -0.430904 0.078471 0.000000 
-0.103057 -0.053771 -0.536493 91 78 56 0.957517 -0.195765 0.211746 0.000000 
-0.082904 -0.014924 -0.459930 122 110 99 0.101382 -0.861032 0.498342 0.000000 
-0.093234 -0.051328 -0.530544 103 87 72 0.435465 -0.897030 0.075554 0.000000 
-0.092530 -0.035705 -0.499733 75 51 30 0.850157 -0.487303 0.199420 0.000000 
-0.091765 -0.036424 -0.495710 99 80 61 -0.110533 0.761941 -0.638144 0.000000 
-0.079227 -0.001472 -0.439408 120 107 97 0.402997 0.625226 -0.668345 0.000000 
-0.111735 -0.062480 -0.600434 73 58 41 -0.641056 -0.696235 0.322962 0.000000 
-0.091374 -0.045718 -0.517049 104 92 75 -0.243848 0.931697 -0.269220 0.000000 
-0.069451 0.032719 -0.399383 104 84 64 0.599484 -0.646502 0.471863 0.000000 
-0.092223 -0.045696 -0.517283 97 82 62 0.211541 -0.900145 0.380774 0.000000 
-0.086525 -0.025275 -0.477750 105 89 69 -0.242857 0.812103 -0.530574 0.000000 
-0.078641 0.004131 -0.432873 123 111 96 -0.773670 -0.549418 0.315555 0.000000 
-0.091570 -0.047228 -0.524692 98 86 71 -0.951546 -0.157025 0.264393 0.000000 
-0.110552 -0.063859 -0.592284 80 67 47 0.737068 -0.669929 -0.089032 0.000000 
-0.078842 -0.004309 -0.444060 107 89 74 0.216523 -0.916279 0.336973 0.000000 
-0.102679 -0.062401 -0.566913 100 85 67 -0.655625 0.742642 0.136526 0.000000 
-0.111513 -0.070606 -0.587537 88 70 41 -0.676863 0.727221 0.114045 0.000000 
-0.090746 -0.033107 -0.488316 95 84 72 -0.108778 -0.833965 0.540989 0.000000 
-0.073294 0.011079 -0.420455 123 114 102 -0.158895 -0.749076 0.643146 0.000000 
-0.103438 -0.055278 -0.541566 75 66 49 0.804686 -0.441694 -0.396721 0.000000 
-0.087790 -0.036008 -0.502585 85 68 55 -0.955242 0.039015 0.293243 0.000000 
-0.091937 -0.046984 -0.517895 117 109 96 -0.209477 0.851473 -0.480743 0.000000 
-0.111010 -0.068870 -0.571222 89 75 56 0.900387 0.192836 -0.390023 0.000000 
-0.114352 -0.065569 -0.589498 84 63 38 0.898810 -0.264182 -0.349783 0.000000 
-0.085559 -0.014314 -0.462153 98 81 62 -0.977777 -0.150715 0.145732 0.000000 
-0.071492 0.016835 -0.415550 73 67 52 0.988210 -0.113979 -0.102229 0.000000 
-0.079603 0.001756 -0.437057 129 114 94 -0.682714 -0.521681 0.511616 0.000000 
-0.070719 0.032457 -0.402425 112 93 75 0.498873 -0.465725 0.730907 0.000000 
-0.069302 0.033754 -0.392662 137 123 111 0.001362 0.581753 -0.813364 0.000000 
-0.099241 -0.058669 -0.553807 93 74 52 -0.867706 0.440620 0.230085 0.000000 
-0.091239 -0.036106 -0.506565 89 80 63 0.082382 0.784798 -0.614252 0.000000 
-0.082969 -0.012057 -0.456021 129 105 80 0.312360 0.681366 -0.661945 0.000000 
-0.113979 -0.069456 -0.605710 101 82 55 -0.998483 -0.038929 -0.038929 0.000000 
-0.076722 0.001344 -0.435474 104 91 72 -0.090154 -0.837148 0.539495 0.000000 
-0.075685 0.006678 -0.426762 109 93 73 -0.248787 -0.777654 0.577373 0.000000 
-0.078380 -0.001504 -0.439811 108 93 77 0.280472 -0.871738 0.401757 0.000000 
-0.095822 -0.046998 -0.515549 108 93 82 0.243630 -0.861028 0.446403 0.000000 
-0.089497 -0.043092 -0.515436 89 77 62 0.741509 0.545083 0.391216 0.000000 
-0.090054 -0.030426 -0.485654 119 99 72 0.473764 0.816015 -0.331160 0.000000 
-0.067185 0.031276 -0.395261 151 124 101 0.616968 -0.650408 0.443080 0.000000 
-0.092184 -0.039354 -0.502362 108 93 74 0.477716 -0.840228 0.256523 0.000000 
-0.084195 -0.023753 -0.475676 102 84 65 0.485427 -0.752000 0.445934 0.000000 
-0.082157 -0.022052 -0.476251 103 89 73 -0.945636 0.323674 -0.031733 0.000000 
-0.096898 -0.056719 -0.550170 105 94 74 -0.826054 -0.524841 0.205372 0.000000 
-0.105922 -0.063146 -0.557828 105 92 69 -0.712785 -0.692039 0.114105 0.000000 
-0.067334 0.047276 -0.378879 117 112 107 0.867552 0.100812 -0.487022 0.000000 
-0.071253 0.020730 -0.414266 69 61 47 -0.910220 0.057813 0.410070 0.000000 
-0.071500 0.023147 -0.409558 100 82 59 0.869933 -0.443174 0.216364 0.000000 
-0.075702 0.003971 -0.429913 123 117 108 0.199980 -0.875469 0.439957 0.000000 
-0.077185 -0.002741 -0.442905 98 82 70 -0.553364 0.745981 -0.370542 0.000000 
-0.090219 -0.028779 -0.481957 126 115 102 -0.343005 -0.720148 0.603104 0.000000 
-0.079438 -0.009333 -0.457348 58 50 37 -0.768432 -0.429082 0.474764 0.000000 
-0.076946 0.007296 -0.427271 123 112 95 0.761503 0.492930 -0.420873 0.000000 
-0.099966 -0.053395 -0.531165 97 87 68 -0.294563 -0.804930 0.515092 0.000000 
-0.086536 -0.030178 -0.493633 70 62 47 0.632710 0.652638 -0.416825 0.000000 
-0.095749 -0.047014 -0.516668 127 108 86 -0.372516 0.857869 -0.353967 0.000000 
-0.093318 -0.044354 -0.519604 74 63 44 0.989039 -0.097148 0.111194 0.000000 
-0.074579 0.014428 -0.423923 67 55 47 0.835181 0.200866 -0.511982 0.000000 
-0.085116 -0.016312 -0.462499 123 102 77 -0.139733 -0.701670 0.698665 0.000000 
-0.087196 -0.028786 -0.484651 107 89 69 0.247819 -0.829656 0.500256 0.000000 
-0.095576 -0.055172 -0.542390 95 86 68 0.965885 -0.255349 -0.043175 0.000000 
-0.101692 -0.057454 -0.540364 116 93 71 -0.343152 -0.914593 0.213931 0.000000 
-0.082134 -0.012798 -0.456914 127 105 82 0.182176 -0.908012 0.377262 0.000000 
-0.080736 -0.012902 -0.458304 122 109 90 -0.607019 0.723567 -0.328600 0.000000 
-0.086879 -0.032280 -0.497148 80 71 58 -0.722810 -0.534251 0.438317 0.000000 
-0.075656 0.001102 -0.436773 104 92 75 -0.714466 0.674517 -0.185915 0.000000 
-0.081627 -0.001293 -0.445431 92 82 67 -0.833469 0.198157 -0.515813 0.000000 
-0.077226 0.008924 -0.427733 116 96 70 0.955063 0.205520 -0.213579 0.000000 
-0.077702 -0.005416 -0.447723 100 92 79 -0.740930 0.624520 -0.246977 0.000000 
-0.110596 -0.068732 -0.585043 94 70 43 -0.834991 0.542816 -0.090231 0.000000 
-0.087986 -0.026152 -0.478829 114 86 63 -0.317348 -0.876124 0.362901 0.000000 
-0.084526 -0.028889 -0.487067 99 89 70 0.959249 0.056872 -0.276779 0.000000 
-0.096970 -0.057163 -0.545364 100 85 66 0.619511 -0.781248 -0.076536 0.000000 
-0.073816 0.021034 -0.414251 101 86 63 -0.972395 -0.042489 0.229441 0.000000 
-0.075230 0.005480 -0.431658 83 74 64 0.962552 -0.098690 -0.252494 0.000000 
-0.072031 0.020288 -0.416345 61 53 38 0.965816 0.180684 -0.185884 0.000000 
-0.099408 -0.057985 -0.544201 96 85 64 0.351550 -0.935305 0.040214 0.000000 
-0.088608 -0.022962 -0.477722 69 52 33 -0.791316 0.549044 0.269016 0.000000 
-0.083050 -0.008263 -0.451465 125 113 96 -0.668264 -0.428289 0.608270 0.000000 
-0.102787 -0.052854 -0.538172 82 69 42 0.545630 -0.837188 0.037486 0.000000 
-0.079114 -0.008801 -0.452456 118 105 84 -0.565804 0.813990 -0.131479 0.000000 
-0.090348 -0.043125 -0.512491 104 92 76 -0.292682 0.895875 -0.334282 0.000000 
-0.091939 -0.038638 -0.500083 106 85 62 0.421969 -0.896507 0.134973 0.000000 
-0.107378 -0.066077 -0.582456 96 78 57 -0.834141 0.551056 0.023361 0.000000 
-0.096474 -0.051893 -0.532847 74 61 43 0.583297 0.702270 -0.408143 0.000000 
-0.102112 -0.060559 -0.560549 112 94 72 -0.493996 0.868277 -0.045409 0.000000 
-0.099959 -0.060767 -0.543329 116 105 91 -0.948877 0.057937 0.310284 0.000000 
-0.085127 -0.021208 -0.470186 113 91 71 0.137610 -0.812341 0.566715 0.000000 
-0.092363 -0.038445 -0.499808 108 92 70 -0.050353 -0.943803 0.326651 0.000000 
-0.084860 -0.017379 -0.464172 114 89 67 -0.047963 -0.878400 0.475514 0.000000 
-0.078129 -0.006515 -0.451279 92 81 65 -0.932937 0.355592 0.056422 0.000000 
-0.067876 0.029422 -0.399173 102 84 67 0.947938 -0.249601 0.197771 0.000000 
-0.076360 0.003120 -0.432552 116 102 82 -0.105994 0.880454 -0.462132 0.000000 
-0.072269 0.018831 -0.417495 70 62 45 -0.965885 -0.074299 0.248083 0.000000 
-0.087434 -0.019750 -0.475765 74 61 41 -0.869994 0.447638 -0.206716 0.000000 
-0.098676 -0.049060 -0.524661 82 70 53 0.878605 -0.416181 0.234195 0.000000 
-0.066833 0.031280 -0.396180 138 122 106 -0.907628 0.325928 -0.264542 0.000000 
-0.110163 -0.068115 -0.572214 83 64 45 0.865495 -0.301774 -0.399813 0.000000 
-0.077714 -0.003370 -0.443312 104 94 76 0.598073 -0.703519 0.383887 0.000000 
-0.079459 -0.008138 -0.450364 125 119 111 -0.572515 0.602914 -0.555627 0.000000 
-0.105174 -0.060973 -0.575085 87 75 52 0.929913 -0.215898 -0.297741 0.000000 
-0.095863 -0.050310 -0.525904 107 92 72 -0.552388 0.739250 -0.385197 0.000000 
-0.112425 -0.064772 -0.604657 75 65 45 0.930068 -0.324896 -0.171512 0.000000 
-0.104089 -0.060322 -0.552218 73 57 38 -0.982189 0.139965 0.125360 0.000000 
-0.081517 -0.016712 -0.464036 114 102 84 0.629654 -0.713393 0.307580 0.000000 
-0.090127 -0.033594 -0.490701 105 82 58 0.531359 -0.786666 0.314347 0.000000 
-0.097635 -0.057611 -0.548935 96 83 63 0.799385 -0.593373 -0.094301 0.000000 
-0.102500 -0.054404 -0.550147 86 77 61 -0.433116 0.810294 -0.394759 0.000000 
-0.106126 -0.056724 -0.564074 109 88 65 -0.607231 0.794495 0.006885 0.000000 
-0.106177 -0.064656 -0.554800 90 78 60 0.983659 -0.177686 0.029034 0.000000 
-0.077249 0.005419 -0.434867 55 42 27 -0.524549 -0.781208 0.338470 0.000000 
-0.098255 -0.057448 -0.544443 85 67 44 -0.207103 0.972756 0.104179 0.000000 
-0.081644 -0.010208 -0.453463 128 107 84 0.070524 0.767134 -0.637599 0.000000 
-0.107207 -0.062875 -0.578626 88 71 43 0.913365 0.063223 -0.402203 0.000000 
-0.070417 0.029899 -0.396990 114 90 73 0.503717 0.694494 -0.513758 0.000000 
-0.092767 -0.037366 -0.495711 94 82 70 -0.295091 -0.767237 0.569446 0.000000 
-0.103914 -0.060383 -0.550236 117 100 78 0.778112 0.627779 0.020880 0.000000 
-0.087666 -0.023890 -0.475001 119 107 88 -0.316140 -0.825738 0.467132 0.000000 
-0.105554 -0.064701 -0.573994 99 81 50 0.476155 -0.879361 -0.001326 0.000000 
-0.088402 -0.038297 -0.506037 90 79 65 -0.920364 0.360021 0.152694 0.000000 
-0.083462 -0.019055 -0.466997 127 104 78 -0.169888 0.810349 -0.560779 0.000000 
-0.083410 -0.022678 -0.477196 89 72 58 0.944874 0.323552 -0.050273 0.000000 
-0.107987 -0.065270 -0.562967 100 88 65 0.057532 0.837727 -0.543049 0.000000 
-0.113901 -0.068432 -0.610152 91 75 45 -0.901233 0.432751 0.022498 0.000000 
-0.072096 0.019902 -0.415780 73 64 47 -0.933823 -0.292607 0.205805 0.000000 
-0.069977 0.024718 -0.404066 111 96 85 -0.191555 0.767752 -0.611443 0.000000 
-0.095885 -0.050197 -0.522858 118 107 88 0.446547 -0.835121 0.321200 0.000000 
-0.082111 -0.009224 -0.452105 126 108 87 -0.352163 -0.829084 0.434282 0.000000 
-0.106661 -0.064853 -0.579839 87 69 49 -0.951164 0.294377 0.092892 0.000000 
-0.098057 -0.053305 -0.531960 87 68 48 -0.421793 0.900661 -0.104404 0.000000 
-0.098119 -0.055782 -0.548403 74 62 44 0.327519 0.899565 -0.288987 0.000000 
-0.103329 -0.054167 -0.547506 95 83 65 -0.808606 0.571217 -0.140950 0.000000 
-0.108554 -0.063102 -0.574338 81 60 38 -0.927503 -0.078965 0.365380 0.000000 
-0.106587 -0.057783 -0.570849 85 70 51 0.403501 -0.875007 0.267489 0.000000 
-0.103075 -0.059182 -0.546361 79 61 45 -0.946193 -0.181070 0.268202 0.000000 
-0.105281 -0.065290 -0.562005 107 91 65 -0.712385 0.697877 -0.073995 0.000000 
-0.096751 -0.050378 -0.523907 117 103 83 0.402915 -0.894558 0.193457 0.000000 
-0.085548 -0.030081 -0.489026 97 85 71 -0.948277 0.206028 -0.241504 0.000000 
-0.071028 0.018465 -0.413719 77 65 53 0.930306 0.112723 -0.349034 0.000000 
-0.071615 0.014287 -0.417647 76 67 55 -0.947395 0.319948 -0.008715 0.000000 
-0.101770 -0.056428 -0.557850 58 46 30 -0.751200 -0.620014 0.226453 0.000000 
-0.073128 0.020790 -0.413607 103 83 66 0.971072 -0.015566 -0.238278 0.000000 
-0.083032 -0.021012 -0.474700 88 71 58 0.975305 0.211174 -0.064695 0.000000 
-0.091765 -0.048837 -0.527843 103 94 76 0.932028 -0.318084 -0.173627 0.000000 
-0.093217 -0.036830 -0.500880 76 55 35 0.831566 -0.551072 0.069415 0.000000 
-0.100524 -0.051959 -0.530265 100 93 75 0.950274 -0.279335 -0.137663 0.000000 
-0.092920 -0.036072 -0.496124 112 92 68 0.655195 0.550768 -0.517082 0.000000 
-0.085473 -0.015326 -0.462326 115 94 68 0.591806 0.464392 -0.658867 0.000000 
-0.094185 -0.052798 -0.536212 100 93 79 0.820436 -0.569080 0.055072 0.000000 
-0.099682 -0.051320 -0.526658 82 69 54 -0.938269 -0.325356 0.117452 0.000000 
-0.084615 -0.015925 -0.460268 127 121 112 0.165813 0.725622 -0.667816 0.000000 
-0.093159 -0.050501 -0.528629 89 72 58 -0.589296 0.545394 -0.596050 0.000000 
-0.094222 -0.048129 -0.522121 83 65 48 0.472426 -0.752261 0.459258 0.000000 
-0.112316 -0.064749 -0.583199 97 77 54 -0.944935 0.218697 0.243455 0.000000 
-0.069437 0.025490 -0.405004 91 75 53 0.983797 -0.026652 -0.177292 0.000000 
-0.081304 -0.005073 -0.451950 71 62 45 -0.254430 -0.854703 0.452490 0.000000 
-0.099658 -0.057327 -0.553933 89 79 57 -0.726658 -0.593356 0.346260 0.000000 
-0.109827 -0.061938 -0.596573 69 55 39 0.770580 0.496886 -0.399138 0.000000 
-0.095555 -0.044083 -0.511250 106 88 68 0.585992 0.688914 -0.426628 0.000000 
-0.080483 -0.009852 -0.452754 121 111 93 -0.369247 0.822485 -0.432637 0.000000 
-0.090842 -0.041227 -0.510154 97 82 61 0.120634 -0.916541 0.381314 0.000000 
-0.107032 -0.060094 -0.584089 84 76 60 0.933723 0.304747 -0.187858 0.000000 
-0.106386 -0.064992 -0.573555 95 79 52 -0.380788 0.921696 -0.074005 0.000000 
-0.099769 -0.051008 -0.527129 81 68 50 0.914072 0.382146 -0.135781 0.000000 
-0.084016 -0.018933 -0.466809 123 102 75 -0.155224 0.779135 -0.607334 0.000000 
-0.085779 -0.015094 -0.461272 125 116 108 0.830410 0.403342 -0.384361 0.000000 
-0.099028 -0.054499 -0.533953 93 74 57 -0.420780 0.839995 -0.342568 0.000000 
-0.111514 -0.067714 -0.591589 99 82 56 0.949310 -0.211109 0.232901 0.000000 
-0.079131 -0.008908 -0.449524 123 110 95 0.741146 -0.205788 0.639026 0.000000 
-0.109108 -0.067733 -0.579430 103 81 51 -0.895679 0.444542 0.011872 0.000000 
-0.104575 -0.056228 -0.569816 81 67 48 0.066098 0.997768 0.009443 0.000000 
-0.098517 -0.053476 -0.527815 85 75 62 -0.198034 -0.829927 0.521539 0.000000 
-0.068423 0.033375 -0.393528 122 103 89 0.093665 -0.822808 0.560547 0.000000 
-0.088258 -0.032332 -0.491868 102 82 59 0.279371 -0.888909 0.363033 0.000000 
-0.102897 -0.055950 -0.540146 119 104 83 0.742066 -0.384957 -0.548768 0.000000 
-0.096623 -0.045631 -0.517992 81 68 54 -0.898810 0.349783 0.264182 0.000000 
-0.111176 -0.061284 -0.591134 87 68 52 -0.615076 0.788022 0.026500 0.000000 
-0.070357 0.020149 -0.408353 113 99 82 -0.927912 0.290415 0.233749 0.000000 
-0.077857 0.001644 -0.435105 109 92 75 0.187656 0.782664 -0.593482 0.000000 
-0.085097 -0.024535 -0.476470 112 97 76 0.318194 -0.875415 0.363868 0.000000 
-0.084166 -0.012762 -0.465250 68 56 43 -0.492577 0.775444 -0.395037 0.000000 
-0.108184 -0.067430 -0.566087 94 81 58 0.135672 -0.965207 0.223535 0.000000 
-0.071478 0.018819 -0.414568 73 65 53 -0.931919 -0.229808 0.280563 0.000000 
-0.098863 -0.055568 -0.545254 85 71 49 0.095161 0.991741 0.085989 0.000000 
-0.090745 -0.026949 -0.483103 120 106 88 0.967356 -0.214540 -0.134890 0.000000 
-0.084416 -0.026231 -0.480446 120 105 84 -0.440494 0.879525 -0.180003 0.000000 
-0.085784 -0.031574 -0.492273 107 95 71 -0.960123 0.253348 -0.118229 0.000000 
-0.100367 -0.055821 -0.538388 97 77 62 0.262487 -0.929345 0.259649 0.000000 
-0.088495 -0.038012 -0.506573 93 85 70 -0.903214 -0.262887 0.339256 0.000000 
-0.114023 -0.070079 -0.603612 99 84 58 -0.803172 0.562373 0.196602 0.000000 
-0.104453 -0.060989 -0.551389 107 97 79 0.821788 0.303260 -0.482388 0.000000 
-0.097522 -0.050427 -0.523601 122 108 88 -0.072944 0.932355 -0.354109 0.000000 
-0.071569 0.022880 -0.409608 99 83 60 0.934350 -0.356245 0.008874 0.000000 
-0.111336 -0.062890 -0.600362 82 73 54 -0.751459 -0.528804 0.394557 0.000000 
-0.086554 -0.030691 -0.488131 114 89 67 0.372418 -0.810368 0.452336 0.000000 
-0.073914 0.006973 -0.425665 107 96 79 -0.610318 0.780431 -0.135792 0.000000 
-0.102629 -0.061826 -0.563559 99 84 61 -0.570996 0.710021 -0.412110 0.000000 
-0.086549 -0.031741 -0.490792 108 92 76 0.341036 -0.895032 0.287423 0.000000 
-0.106619 -0.064436 -0.579716 83 65 44 -0.984674 0.106743 0.137926 0.000000 
-0.082303 -0.008425 -0.458073 68 58 46 0.153247 -0.915262 0.372572 0.000000 
-0.091786 -0.042920 -0.516870 75 63 45 0.218329 0.895295 -0.388303 0.000000 
-0.091478 -0.034175 -0.503074 71 64 49 0.259649 -0.929345 0.262487 0.000000 
-0.074633 0.013955 -0.418956 100 90 75 -0.794527 -0.299732 0.528099 0.000000 
-0.096971 -0.045550 -0.514925 79 70 55 0.983508 -0.167684 -0.067787 0.000000 
-0.086706 -0.016287 -0.465571 91 77 60 -0.995899 -0.029259 0.085610 0.000000 
-0.070478 0.021994 -0.407040 104 94 80 0.008909 0.932849 -0.360158 0.000000 
-0.100336 -0.059545 -0.546926 84 69 48 -0.737391 0.637617 -0.222932 0.000000 
-0.073627 0.011078 -0.420859 113 103 87 0.271969 -0.797041 0.539221 0.000000 
-0.110909 -0.064158 -0.593464 81 69 48 -0.833199 0.551279 -0.043265 0.000000 
-0.113153 -0.069789 -0.599752 87 71 41 -0.823419 0.537405 0.182146 0.000000 
-0.110971 -0.068946 -0.583672 97 72 47 0.777115 -0.617251 -0.122858 0.000000 
-0.092097 -0.039005 -0.501766 106 88 75 -0.544067 0.810737 -0.216094 0.000000 
-0.109586 -0.068310 -0.580386 96 74 48 -0.886295 0.456324 0.079059 0.000000 
-0.088357 -0.024545 -0.476606 107 92 75 0.480019 0.758528 -0.440700 0.000000 
-0.093137 -0.039824 -0.513159 85 76 59 -0.251734 -0.829333 0.498835 0.000000 
-0.099473 -0.055162 -0.535053 115 103 81 -0.420931 0.861760 -0.283172 0.000000 
-0.103906 -0.055420 -0.543902 106 96 80 0.955616 0.286043 0.070549 0.000000 
-0.086885 -0.017864 -0.467813 98 86 63 0.990034 0.044534 -0.133603 0.000000 
-0.082702 -0.006957 -0.450315 110 95 78 -0.743398 -0.317678 0.588591 0.000000 
-0.088878 -0.031997 -0.489762 109 88 68 -0.474745 0.818580 -0.323331 0.000000 
-0.091615 -0.037824 -0.498333 106 85 61 -0.533898 0.761088 -0.368373 0.000000 
-0.072224 0.020135 -0.409673 98 84 69 0.790160 0.119632 -0.601112 0.000000 
-0.099265 -0.057153 -0.541354 103 90 68 0.227787 -0.894982 0.383564 0.000000 
-0.067938 0.045687 -0.380723 122 112 97 0.327196 0.234947 -0.915283 0.000000 
-0.114539 -0.063435 -0.603193 79 62 44 0.592154 -0.804938 0.037797 0.000000 
-0.097411 -0.051222 -0.525451 108 97 78 0.228833 -0.946846 0.226092 0.000000 
-0.107640 -0.064504 -0.567196 86 67 45 0.935636 0.323716 0.140687 0.000000 
-0.071886 0.026728 -0.405836 121 105 89 0.814071 -0.377563 0.441287 0.000000 
-0.100386 -0.056363 -0.537441 109 90 62 -0.394539 0.918878 0.001285 0.000000 
-0.087937 -0.021047 -0.472056 104 90 71 -0.776757 -0.104253 0.621112 0.000000 
-0.081327 -0.016061 -0.463576 99 86 70 0.778354 -0.545007 0.311661 0.000000 
-0.102241 -0.060996 -0.554152 84 66 40 0.753843 -0.657019 0.006916 0.000000 
-0.089660 -0.039452 -0.506233 103 87 63 -0.326954 0.884434 -0.332981 0.000000 
-0.097558 -0.055283 -0.539508 83 66 47 0.136622 -0.905649 0.401415 0.000000 
-0.079618 0.000818 -0.438192 115 101 82 0.710292 0.450794 -0.540620 0.000000 
-0.085950 -0.023296 -0.473399 133 111 85 0.144411 -0.862089 0.485745 0.000000 
-0.099768 -0.052740 -0.529661 107 88 66 0.487010 0.784717 -0.383460 0.000000 
-0.070340 0.022961 -0.410323 76 66 57 -0.951241 0.286296 0.114782 0.000000 
-0.089885 -0.044529 -0.516619 82 72 56 -0.890605 0.403487 -0.209813 0.000000 
-0.082903 -0.018766 -0.466327 130 106 80 -0.374785 0.875511 -0.304987 0.000000 
-0.079098 0.002652 -0.440875 78 69 59 -0.358041 -0.616353 0.701367 0.000000 
-0.080284 0.000305 -0.439217 112 95 71 -0.776117 -0.453955 0.437684 0.000000 
-0.116287 -0.068211 -0.596890 77 56 30 0.810268 -0.565546 -0.153697 0.000000 
-0.092958 -0.040001 -0.504064 98 78 59 -0.551288 0.752939 -0.359394 0.000000 
-0.070074 0.033352 -0.395941 118 91 70 -0.919284 -0.389798 -0.054545 0.000000 
-0.079945 -0.005957 -0.445875 120 104 83 -0.004106 -0.803429 0.595386 0.000000 
-0.102783 -0.062372 -0.558237 109 92 69 0.746831 -0.639484 -0.182491 0.000000 
-0.092038 -0.040355 -0.507105 103 82 67 0.508767 -0.837880 0.197770 0.000000 
-0.080111 -0.015486 -0.466440 110 97 78 0.842992 0.364410 -0.395690 0.000000 
-0.068674 0.036132 -0.390213 135 117 103 0.542776 0.505807 -0.670488 0.000000 
-0.095498 -0.048033 -0.519821 105 93 72 0.709979 -0.688876 0.146217 0.000000 
-0.067065 0.032416 -0.396586 101 82 64 0.992468 -0.050694 -0.111526 0.000000 
-0.076259 -0.000525 -0.439420 92 78 64 0.582306 -0.710974 0.394253 0.000000 
-0.098238 -0.054677 -0.536693 88 73 53 0.169730 -0.984433 0.045651 0.000000 
-0.091618 -0.036954 -0.496830 97 82 62 0.423093 -0.799533 0.426310 0.000000 
-0.107677 -0.067307 -0.583762 99 84 60 0.706920 -0.698028 -0.114115 0.000000 
-0.075549 0.006462 -0.426711 129 114 94 0.072228 0.836997 -0.542419 0.000000 
-0.077528 -0.005229 -0.449169 83 76 62 -0.961313 0.033405 0.273424 0.000000 
-0.099925 -0.051419 -0.530494 83 72 55 -0.575979 0.803378 -0.151101 0.000000 
-0.094143 -0.041995 -0.506791 112 83 59 0.001296 -0.908224 0.418483 0.000000 
-0.106036 -0.064749 -0.560343 102 89 65 0.231613 0.966119 0.113887 0.000000 
-0.103045 -0.054532 -0.547362 74 60 43 0.915040 -0.394108 0.085913 0.000000 
-0.086276 -0.016395 -0.464035 119 98 70 0.767757 0.252779 -0.588771 0.000000 
-0.104641 -0.062564 -0.555434 95 85 65 0.349948 0.737332 -0.577821 0.000000 
-0.069115 0.027435 -0.397439 136 112 87 -0.968733 -0.081459 0.234351 0.000000 
-0.089764 -0.041269 -0.509745 105 91 75 0.259042 -0.881939 0.393803 0.000000 
-0.074425 0.010409 -0.421175 129 117 109 -0.423598 0.696030 -0.579748 0.000000 
-0.076031 0.003182 -0.438792 94 82 68 0.626529 0.575866 -0.525204 0.000000 
-0.091796 -0.038382 -0.500144 104 87 73 0.623105 -0.779950 0.058461 0.000000 
-0.069398 0.037183 -0.391564 127 97 69 -0.930551 -0.092920 0.354175 0.000000 
-0.077463 -0.000227 -0.437694 104 91 75 0.256790 -0.807723 0.530700 0.000000 
-0.114551 -0.063635 -0.607329 69 54 34 -0.182114 -0.980521 -0.073569 0.000000 
-0.104233 -0.064536 -0.571805 108 100 85 0.878791 -0.476518 0.025648 0.000000 
-0.087273 -0.019412 -0.468996 117 103 84 0.828458 0.394429 -0.397597 0.000000 
-0.090066 -0.027741 -0.491046 90 80 61 -0.613132 0.623211 -0.485466 0.000000 
-0.073458 0.011505 -0.419365 118 115 107 -0.443972 -0.734452 0.513291 0.000000 
-0.094995 -0.051818 -0.533642 76 61 43 0.438101 0.817257 0.374377 0.000000 
-0.102904 -0.059796 -0.546647 121 107 89 0.662906 0.704041 -0.254720 0.000000 
-0.109677 -0.058565 -0.585999 80 66 47 -0.032315 -0.992866 0.114776 0.000000 
-0.079534 -0.003036 -0.442156 111 96 76 -0.355275 -0.751106 0.556435 0.000000 
-0.087276 -0.028675 -0.484277 106 88 67 -0.293767 0.872168 -0.391182 0.000000 
-0.102723 -0.058206 -0.562864 72 60 39 -0.906640 -0.356544 0.225568 0.000000 
-0.069430 0.029331 -0.405674 93 80 64 0.392355 -0.770057 -0.503061 0.000000 
-0.084369 -0.023255 -0.473860 114 93 74 0.087295 -0.984166 0.154262 0.000000 
-0.107089 -0.065006 -0.584306 83 73 54 -0.993958 -0.070597 0.084044 0.000000 
-0.107432 -0.065854 -0.578291 111 91 69 0.598159 -0.769061 -0.225281 0.000000 
-0.068883 0.033723 -0.392880 134 112 97 0.168528 -0.611864 0.772801 0.000000 
