ply
format ascii 1.0
comment Created by Open3D
obj_info Generated by CloudCompare!
element vertex 614
property float x
property float y
property float z
property uchar red
property uchar green
property uchar blue
property float nx
property float ny
property float nz
property float scalar_leaf1
end_header
-0.003825 0.259152 -0.613918 102 95 80 -0.910468 -0.088993 0.403892 0.000000 
-0.003934 0.201399 -0.645603 111 106 93 -0.834049 -0.102630 0.542060 0.000000 
-0.000378 0.229064 -0.627946 109 101 83 0.574666 0.691265 -0.438078 0.000000 
0.004776 0.209368 -0.642571 111 99 82 0.286334 -0.552103 0.783068 0.000000 
0.001472 0.329421 -0.573986 113 99 76 -0.481617 -0.474997 0.736494 0.000000 
-0.002462 0.266430 -0.609200 114 107 92 -0.673971 -0.280154 0.683576 0.000000 
-0.005352 0.184563 -0.660165 108 99 80 -0.296910 -0.611474 0.733447 0.000000 
0.000533 0.291578 -0.595905 114 105 87 -0.556961 -0.377296 0.739893 0.000000 
0.005483 0.314572 -0.580623 144 126 101 -0.904526 -0.298567 0.304450 0.000000 
-0.005581 0.187884 -0.658732 125 107 84 -0.376466 -0.379590 0.845095 0.000000 
0.003856 0.277957 -0.598049 115 102 83 -0.218974 -0.478721 0.850221 0.000000 
0.003443 0.247094 -0.615077 116 105 92 0.518425 -0.592727 0.616369 0.000000 
0.004645 0.246922 -0.615224 109 95 76 -0.604563 0.350353 -0.715372 0.000000 
0.005904 0.263218 -0.607019 106 99 85 -0.746200 -0.012506 -0.665605 0.000000 
0.006623 0.239752 -0.622090 118 107 92 0.925266 -0.346453 0.154443 0.000000 
-0.000937 0.197075 -0.649681 103 96 83 0.660652 -0.566513 0.492547 0.000000 
-0.002331 0.179272 -0.661857 107 99 85 -0.082748 -0.756345 0.648918 0.000000 
0.000047 0.228890 -0.628063 129 110 88 -0.274143 -0.873927 0.401370 0.000000 
-0.004848 0.189641 -0.655107 111 103 86 0.400348 0.910134 -0.106667 0.000000 
-0.003582 0.243975 -0.622476 114 101 83 -0.675232 -0.406466 0.615506 0.000000 
0.003350 0.246614 -0.615230 116 104 83 -0.460136 0.740506 -0.489822 0.000000 
0.008404 0.253820 -0.613112 116 105 87 -0.974823 -0.027510 0.221279 0.000000 
0.005815 0.297748 -0.586917 132 118 99 -0.043164 -0.549999 0.834049 0.000000 
-0.010304 0.158280 -0.689503 103 99 87 0.802617 0.403721 -0.439107 0.000000 
0.001748 0.309081 -0.586391 108 96 77 -0.752057 -0.362222 0.550642 0.000000 
0.006239 0.328610 -0.572876 120 109 89 -0.504936 0.104420 -0.856817 0.000000 
0.001115 0.268908 -0.603772 124 121 117 -0.260738 -0.192482 0.946027 0.000000 
0.003423 0.348396 -0.562084 120 101 74 0.465346 0.369399 -0.804362 0.000000 
0.003367 0.215470 -0.638451 114 102 83 0.235943 -0.278328 0.931056 0.000000 
-0.007307 0.165492 -0.678392 112 106 93 -0.127133 -0.536296 0.834400 0.000000 
0.004220 0.194754 -0.654504 102 91 75 0.403240 -0.510989 0.759136 0.000000 
-0.010954 0.177537 -0.669624 99 91 77 0.590736 0.489755 -0.641226 0.000000 
0.003941 0.264717 -0.606267 104 93 75 -0.616589 0.472102 -0.630030 0.000000 
0.004219 0.192429 -0.658040 92 82 68 0.558272 -0.544779 0.625737 0.000000 
-0.006921 0.203929 -0.648583 120 106 85 0.384487 0.889218 -0.247912 0.000000 
-0.001600 0.181540 -0.660986 84 78 65 -0.632538 0.384808 -0.672175 0.000000 
0.000123 0.198741 -0.649281 97 87 68 -0.595479 0.419655 -0.685050 0.000000 
-0.000341 0.200667 -0.647319 96 88 69 -0.822291 0.473250 -0.316024 0.000000 
-0.003618 0.217531 -0.636284 137 117 91 0.842932 0.155005 -0.515207 0.000000 
-0.008714 0.218932 -0.639233 111 104 92 -0.467536 -0.457693 0.756259 0.000000 
-0.002524 0.196430 -0.649702 126 109 84 0.608822 0.222664 -0.761417 0.000000 
0.005638 0.320177 -0.575947 139 121 99 -0.852570 0.489521 -0.183012 0.000000 
0.002395 0.373906 -0.546131 123 102 82 0.701444 0.568783 -0.429490 0.000000 
-0.008066 0.212178 -0.642898 103 97 85 0.434596 0.533743 -0.725428 0.000000 
-0.004318 0.253780 -0.616851 99 93 79 -0.508277 -0.265796 0.819150 0.000000 
-0.001613 0.268734 -0.608677 107 96 78 0.394680 0.242765 -0.886168 0.000000 
0.000173 0.183076 -0.662508 111 102 85 -0.859467 0.344095 -0.378042 0.000000 
0.007321 0.323467 -0.576743 130 119 104 -0.962977 0.174253 -0.205697 0.000000 
0.004958 0.284533 -0.595454 122 118 112 0.698695 -0.704654 0.123650 0.000000 
0.002587 0.276894 -0.599341 92 83 64 0.803281 0.278240 -0.526613 0.000000 
-0.003147 0.248716 -0.618121 92 84 66 0.576229 0.379228 -0.723980 0.000000 
0.003368 0.189419 -0.659812 91 83 74 0.543395 -0.740397 0.395644 0.000000 
-0.000681 0.141761 -0.694552 96 90 76 0.608906 0.592039 -0.527943 0.000000 
-0.009791 0.162132 -0.683099 103 101 90 -0.785007 -0.554401 0.276411 0.000000 
0.003202 0.356371 -0.557563 104 89 71 0.361133 0.714095 -0.599709 0.000000 
-0.006112 0.163148 -0.681716 111 105 90 0.484298 -0.547977 0.682039 0.000000 
-0.000406 0.322466 -0.580932 93 82 63 0.944944 0.196120 -0.261951 0.000000 
0.000251 0.326568 -0.577240 101 94 76 -0.553379 -0.718567 0.421229 0.000000 
-0.006544 0.174079 -0.669202 102 99 84 0.023033 0.865753 -0.499942 0.000000 
0.001222 0.210715 -0.639999 108 98 84 0.657861 -0.308726 0.686955 0.000000 
0.003094 0.267792 -0.603531 108 94 74 -0.151132 -0.588068 0.794566 0.000000 
0.002961 0.246800 -0.615046 111 99 81 -0.523494 0.687400 -0.503424 0.000000 
0.001089 0.350208 -0.562895 112 106 90 -0.767988 -0.242440 0.592805 0.000000 
0.001061 0.334992 -0.571682 104 95 78 0.543169 0.526352 -0.654157 0.000000 
-0.008881 0.157006 -0.687801 99 97 86 -0.591064 -0.510235 0.624743 0.000000 
-0.010726 0.182136 -0.665087 95 82 71 0.555756 0.429674 -0.711699 0.000000 
0.002580 0.377144 -0.543755 135 113 86 0.491514 0.265139 -0.829527 0.000000 
-0.002148 0.215476 -0.635253 146 128 104 -0.346921 -0.540551 0.766453 0.000000 
-0.008121 0.211963 -0.643251 113 102 87 -0.467535 -0.621704 0.628407 0.000000 
-0.007243 0.163188 -0.680194 101 98 84 0.310159 -0.787328 0.532838 0.000000 
-0.006824 0.203111 -0.650348 112 97 77 -0.348028 -0.545514 0.762424 0.000000 
0.002987 0.236188 -0.622788 115 103 84 0.156514 0.824310 -0.544074 0.000000 
-0.002060 0.248172 -0.618114 116 99 76 -0.281847 -0.536927 0.795155 0.000000 
0.005435 0.326626 -0.573284 138 121 99 -0.613822 0.257206 -0.746370 0.000000 
-0.002046 0.175675 -0.664945 99 92 74 0.164225 -0.800030 0.577046 0.000000 
0.002164 0.302697 -0.587979 125 107 80 -0.401006 -0.478935 0.780907 0.000000 
0.003166 0.280989 -0.596097 122 120 115 -0.552046 -0.258038 0.792882 0.000000 
0.004987 0.307237 -0.587659 121 119 114 -0.351296 0.922326 -0.160952 0.000000 
0.001011 0.258872 -0.611110 112 102 85 0.026268 -0.559921 0.828130 0.000000 
-0.000452 0.220945 -0.637237 95 85 66 0.304401 -0.652287 0.694162 0.000000 
0.004704 0.212818 -0.640967 102 93 76 -0.443092 0.718572 -0.536025 0.000000 
0.001191 0.335792 -0.570517 110 98 74 0.642749 0.373156 -0.669051 0.000000 
-0.002558 0.237183 -0.624354 133 112 86 0.831600 0.512339 -0.214361 0.000000 
0.001181 0.282760 -0.599234 126 110 86 0.815945 0.413561 -0.403981 0.000000 
-0.000855 0.277143 -0.603211 120 113 96 -0.569215 -0.342178 0.747602 0.000000 
0.000297 0.283290 -0.600328 113 101 81 0.645426 0.403184 -0.648744 0.000000 
0.004489 0.218040 -0.637983 115 103 85 -0.203609 0.444373 -0.872397 0.000000 
0.005729 0.243092 -0.618285 127 116 106 0.504583 -0.425690 0.751122 0.000000 
0.002636 0.217089 -0.636724 108 94 74 0.184863 -0.371158 0.909982 0.000000 
0.003088 0.237944 -0.620926 124 114 103 0.098470 -0.509475 0.854833 0.000000 
-0.001638 0.201424 -0.644884 108 97 76 -0.058491 -0.439361 0.896405 0.000000 
-0.001980 0.231786 -0.627629 115 104 86 -0.556739 -0.830273 -0.026248 0.000000 
0.003595 0.318245 -0.580581 122 108 83 -0.490951 -0.537868 0.685321 0.000000 
-0.002724 0.261059 -0.612181 110 99 81 0.881875 -0.036575 -0.470062 0.000000 
-0.003744 0.171900 -0.672006 93 84 65 0.778363 0.269980 -0.566800 0.000000 
-0.001938 0.150262 -0.686256 92 84 70 0.065603 -0.386922 0.919776 0.000000 
-0.003770 0.206354 -0.640972 127 126 123 0.496736 0.325338 -0.804617 0.000000 
-0.006691 0.203327 -0.649839 112 103 87 -0.322423 -0.685350 0.652946 0.000000 
-0.008491 0.146526 -0.698403 116 111 98 -0.149104 -0.646117 0.748532 0.000000 
-0.007727 0.173640 -0.671865 104 101 88 -0.229188 -0.966689 0.113954 0.000000 
0.008640 0.346669 -0.564930 122 108 91 -0.012196 -0.527155 0.849682 0.000000 
-0.003360 0.173706 -0.668240 108 102 90 0.704518 0.626419 -0.333548 0.000000 
0.005148 0.287155 -0.592474 116 106 90 -0.245416 -0.507811 0.825772 0.000000 
0.004537 0.240054 -0.620267 115 105 89 0.100265 -0.582699 0.806479 0.000000 
-0.006952 0.192528 -0.655006 114 106 91 -0.409502 -0.741709 0.531202 0.000000 
-0.001985 0.223975 -0.632323 138 118 93 -0.364628 0.879042 -0.307135 0.000000 
-0.010802 0.226268 -0.633003 126 128 126 0.613132 -0.485466 0.623211 0.000000 
0.004891 0.356551 -0.555984 93 80 60 -0.317510 -0.601173 0.733334 0.000000 
0.002038 0.227105 -0.629866 117 106 93 0.568658 -0.397236 0.720300 0.000000 
-0.005888 0.158643 -0.684445 99 98 86 0.128013 0.954159 -0.270543 0.000000 
0.007831 0.330422 -0.571688 148 133 114 0.765454 -0.419449 0.487998 0.000000 
-0.000618 0.331566 -0.576219 101 93 79 -0.820837 -0.322978 0.471075 0.000000 
0.005432 0.321903 -0.574672 115 107 97 -0.168630 -0.529766 0.831211 0.000000 
-0.004044 0.175892 -0.667631 102 94 76 0.457183 0.402256 -0.793205 0.000000 
0.005147 0.207181 -0.644680 111 102 86 0.681301 -0.591349 0.431435 0.000000 
-0.002985 0.204484 -0.643666 136 116 89 -0.357263 -0.417070 0.835713 0.000000 
0.007259 0.360324 -0.553408 133 114 93 0.043993 0.665568 -0.745039 0.000000 
-0.001543 0.255690 -0.613247 127 109 88 -0.598191 -0.249639 0.761477 0.000000 
0.004802 0.213291 -0.639447 106 94 78 0.337657 -0.657372 0.673684 0.000000 
0.007265 0.309561 -0.582311 117 106 87 0.728319 -0.292928 0.619471 0.000000 
-0.001639 0.179992 -0.661916 95 86 69 -0.510902 0.639049 -0.574975 0.000000 
-0.001427 0.158889 -0.679645 108 102 87 -0.202142 -0.628030 0.751476 0.000000 
0.006599 0.371101 -0.546186 131 119 106 0.100501 -0.471362 0.876195 0.000000 
0.007338 0.336561 -0.569949 123 111 95 -0.064220 0.435876 -0.897713 0.000000 
-0.001222 0.187920 -0.656364 109 100 82 0.906804 -0.221986 0.358369 0.000000 
0.001510 0.277522 -0.600993 127 110 85 0.661374 0.341302 -0.667906 0.000000 
-0.004726 0.253797 -0.617726 102 89 72 -0.702874 -0.061807 0.708624 0.000000 
0.001037 0.360844 -0.556081 95 82 62 -0.654819 -0.399522 0.641556 0.000000 
-0.007670 0.212264 -0.642270 106 101 89 0.539099 0.518945 -0.663377 0.000000 
0.005574 0.288394 -0.592068 116 110 102 0.372123 -0.369009 0.851679 0.000000 
0.002666 0.275842 -0.600537 129 113 87 0.903795 0.104124 -0.415107 0.000000 
-0.005247 0.208804 -0.643671 126 106 80 -0.640214 -0.352036 0.682786 0.000000 
-0.001713 0.179395 -0.663786 89 81 68 0.967430 -0.105515 0.230098 0.000000 
0.002233 0.365848 -0.552653 100 82 65 0.596135 0.372789 -0.711092 0.000000 
0.003768 0.193355 -0.656501 102 94 79 0.032495 0.685223 -0.727608 0.000000 
0.001729 0.292116 -0.593778 143 116 83 -0.750210 -0.233364 0.618649 0.000000 
-0.010526 0.173980 -0.673259 99 92 76 0.743258 0.620171 -0.250909 0.000000 
-0.004369 0.177447 -0.667010 109 93 70 0.524463 0.753201 -0.397023 0.000000 
-0.005902 0.203827 -0.649085 100 89 72 -0.615284 -0.632050 0.471103 0.000000 
0.005037 0.250059 -0.613572 116 103 84 0.409433 -0.624924 0.664707 0.000000 
-0.001682 0.160513 -0.676281 110 101 85 -0.195031 0.600449 -0.775516 0.000000 
-0.006688 0.174765 -0.668645 96 88 72 0.126602 0.385370 -0.914036 0.000000 
-0.000744 0.218765 -0.635700 140 116 86 -0.723528 0.385553 -0.572588 0.000000 
0.003589 0.347744 -0.562669 117 100 75 0.298008 0.668504 -0.681391 0.000000 
-0.000761 0.241944 -0.621067 153 134 109 -0.277747 -0.519402 0.808133 0.000000 
0.005248 0.331139 -0.571554 143 127 102 -0.166761 0.214032 0.962487 0.000000 
-0.004616 0.201032 -0.647922 110 96 75 -0.801967 -0.592509 0.076036 0.000000 
-0.004943 0.144001 -0.703027 99 97 82 -0.115253 -0.392970 0.912300 0.000000 
0.001504 0.280076 -0.599501 114 103 86 0.739121 0.317226 -0.594195 0.000000 
0.007631 0.238572 -0.622091 129 112 99 0.821133 -0.392301 0.414537 0.000000 
0.006526 0.229977 -0.627490 108 96 77 0.538688 -0.840913 0.051770 0.000000 
-0.001868 0.291026 -0.598805 101 94 77 0.880940 0.195601 -0.430911 0.000000 
-0.007465 0.200462 -0.651492 114 108 94 0.427752 0.644125 -0.634138 0.000000 
0.002649 0.348329 -0.563251 119 102 79 -0.627054 -0.282414 0.725979 0.000000 
0.000302 0.278257 -0.599274 133 107 77 0.770474 0.215485 -0.599947 0.000000 
-0.000509 0.174925 -0.672886 80 76 59 -0.903686 0.363518 -0.226287 0.000000 
0.004605 0.210256 -0.642222 107 97 81 0.177386 -0.450062 0.875202 0.000000 
0.004360 0.298161 -0.589206 140 118 90 0.862941 0.147474 -0.483305 0.000000 
0.004021 0.383485 -0.537501 126 114 94 0.420499 0.489219 -0.764098 0.000000 
-0.001326 0.179782 -0.664445 91 80 65 0.924902 -0.275898 0.261603 0.000000 
0.003162 0.275345 -0.599574 118 101 78 -0.586142 -0.382552 0.714207 0.000000 
-0.005973 0.207745 -0.644928 129 108 80 -0.632996 -0.229754 0.739276 0.000000 
-0.000330 0.172173 -0.669930 85 79 60 0.947148 -0.172579 0.270420 0.000000 
0.003321 0.235110 -0.623761 124 108 87 0.202847 0.710738 -0.673576 0.000000 
0.005746 0.308412 -0.581590 124 109 87 0.133704 -0.403928 0.904967 0.000000 
-0.003029 0.176397 -0.667256 104 89 67 -0.726522 -0.558483 0.400328 0.000000 
0.001351 0.326295 -0.576403 110 101 83 0.509444 0.667489 -0.543070 0.000000 
0.005071 0.337878 -0.566805 132 118 100 0.600067 0.729461 0.328338 0.000000 
0.006910 0.337069 -0.569584 120 109 89 -0.033826 -0.472214 0.880835 0.000000 
0.002400 0.348351 -0.562966 117 97 69 0.676269 0.268916 -0.685816 0.000000 
-0.002214 0.255947 -0.612815 112 107 93 0.635457 0.318537 -0.703369 0.000000 
0.004694 0.291738 -0.591011 120 103 79 0.232582 0.594724 -0.769551 0.000000 
0.004876 0.334254 -0.569845 110 100 81 0.038864 0.430181 -0.901906 0.000000 
0.005604 0.319115 -0.576107 130 117 97 -0.248939 -0.389061 0.886939 0.000000 
0.000867 0.206350 -0.643437 99 91 72 0.460083 -0.650808 0.603964 0.000000 
0.001097 0.249719 -0.614729 115 104 87 0.487649 0.497635 -0.717327 0.000000 
0.005011 0.341557 -0.567248 111 95 73 0.193669 -0.562707 0.803650 0.000000 
-0.000691 0.193644 -0.651870 97 90 76 0.642217 -0.601974 0.474536 0.000000 
-0.004093 0.267419 -0.610105 110 105 97 -0.652612 -0.265173 0.709775 0.000000 
0.003298 0.344082 -0.565468 112 99 80 0.124573 0.546654 -0.828041 0.000000 
-0.009982 0.185021 -0.662324 108 103 90 -0.532555 -0.512395 0.673674 0.000000 
0.007279 0.311011 -0.582186 132 126 118 0.971925 0.032599 0.233021 0.000000 
-0.001224 0.206804 -0.641068 124 111 90 -0.569522 -0.063911 0.819487 0.000000 
-0.008691 0.164512 -0.680748 114 108 94 0.805566 0.264351 -0.530266 0.000000 
-0.008498 0.196214 -0.654579 105 94 74 0.493726 0.540588 -0.681175 0.000000 
0.002254 0.370292 -0.548801 130 109 82 -0.668345 -0.402997 0.625226 0.000000 
-0.002313 0.190883 -0.652622 114 107 97 -0.038078 -0.624758 0.779890 0.000000 
0.004060 0.257950 -0.609329 112 104 88 0.091906 -0.643339 0.760045 0.000000 
0.001910 0.182683 -0.665448 105 97 82 0.809416 -0.405510 0.424743 0.000000 
-0.009262 0.178097 -0.667806 103 98 83 -0.562421 -0.602955 0.565798 0.000000 
0.001597 0.260014 -0.608783 118 112 104 0.546432 0.469564 -0.693485 0.000000 
-0.005426 0.201358 -0.649746 122 103 76 -0.703651 -0.265259 0.659176 0.000000 
-0.004235 0.257972 -0.613866 113 106 93 0.748959 0.250704 -0.613358 0.000000 
0.000522 0.203971 -0.644152 106 93 71 0.547201 -0.516894 0.658325 0.000000 
0.000291 0.269355 -0.605853 135 114 86 -0.942066 0.026698 0.334363 0.000000 
-0.006826 0.175182 -0.668756 117 103 83 -0.163141 -0.375934 0.912172 0.000000 
-0.009567 0.162310 -0.682573 117 110 98 0.742066 0.548768 -0.384957 0.000000 
0.003342 0.273495 -0.600350 111 102 88 0.282468 0.455345 -0.844318 0.000000 
-0.002227 0.197928 -0.647646 124 108 87 -0.133271 -0.702295 0.699300 0.000000 
0.006118 0.366156 -0.548475 139 116 86 -0.073995 0.712385 -0.697877 0.000000 
-0.007120 0.229604 -0.633891 104 97 82 -0.297999 -0.568908 0.766512 0.000000 
-0.005391 0.148506 -0.698011 107 99 83 -0.189189 -0.884348 0.426775 0.000000 
0.003680 0.257652 -0.609705 125 115 99 -0.196537 -0.487593 0.850662 0.000000 
-0.001707 0.216629 -0.634893 116 101 81 -0.644357 -0.149394 -0.749990 0.000000 
0.005031 0.283066 -0.597632 111 107 99 0.996504 -0.022526 0.080450 0.000000 
0.004972 0.284002 -0.596902 112 108 101 0.845732 -0.311912 0.432953 0.000000 
0.008338 0.232359 -0.627204 102 94 81 -0.651701 -0.269285 0.709064 0.000000 
-0.009403 0.161169 -0.685470 116 107 95 -0.813631 -0.495732 0.303734 0.000000 
-0.007325 0.153145 -0.691142 101 98 87 -0.189993 -0.489195 0.851229 0.000000 
-0.007930 0.189309 -0.659326 107 96 80 -0.526360 -0.401739 0.749367 0.000000 
0.000027 0.316187 -0.583529 111 104 87 0.527439 0.631916 -0.567882 0.000000 
0.003797 0.295885 -0.590766 119 103 77 -0.771220 -0.058664 0.633860 0.000000 
-0.001173 0.172132 -0.667978 109 101 85 -0.492948 0.219931 -0.841803 0.000000 
-0.000542 0.317782 -0.583599 91 84 70 -0.741022 -0.440652 0.506668 0.000000 
-0.007062 0.225149 -0.636208 109 98 85 -0.001349 -0.538096 0.842882 0.000000 
-0.004541 0.219610 -0.635403 115 107 91 0.200994 0.978806 -0.039247 0.000000 
-0.001216 0.228767 -0.629022 110 101 85 -0.513073 -0.543353 0.664472 0.000000 
-0.003045 0.254606 -0.616654 97 85 69 0.654696 0.315224 -0.687027 0.000000 
-0.009110 0.206604 -0.646667 106 99 82 -0.378390 -0.481440 0.790593 0.000000 
-0.000626 0.268165 -0.606768 122 111 94 0.901132 0.214001 -0.377049 0.000000 
0.003515 0.242764 -0.617495 148 132 107 -0.162807 -0.178191 0.970434 0.000000 
-0.003077 0.219560 -0.635145 116 105 89 0.886561 -0.129915 -0.443995 0.000000 
-0.000792 0.258608 -0.611459 139 119 91 0.152347 0.454139 -0.877809 0.000000 
0.003291 0.330743 -0.572456 128 116 92 -0.932952 0.016637 0.359615 0.000000 
-0.001338 0.311364 -0.587965 115 109 91 -0.914190 -0.338322 0.223149 0.000000 
0.002460 0.239090 -0.620507 107 92 71 0.079951 0.156321 -0.984465 0.000000 
-0.006700 0.229383 -0.632186 109 98 80 0.079753 -0.767080 0.636575 0.000000 
-0.000060 0.244211 -0.617931 124 117 108 0.074037 0.481936 -0.873073 0.000000 
-0.003327 0.180798 -0.660511 115 106 91 -0.432537 -0.391039 0.812404 0.000000 
-0.000774 0.155313 -0.684768 90 86 71 -0.514256 -0.451421 -0.729219 0.000000 
0.003576 0.340832 -0.566628 115 104 92 -0.021311 -0.314651 0.948968 0.000000 
0.003129 0.234427 -0.624414 108 97 77 0.269769 -0.340528 0.900703 0.000000 
0.003380 0.371983 -0.546774 120 106 88 -0.583924 -0.506517 0.634408 0.000000 
-0.000947 0.175288 -0.671349 93 88 72 -0.946577 0.304020 0.107535 0.000000 
0.002389 0.349242 -0.562422 119 107 88 0.340258 0.607254 -0.717960 0.000000 
0.007346 0.324393 -0.576110 128 117 100 -0.917306 -0.043681 -0.395779 0.000000 
0.002320 0.245962 -0.615885 116 105 85 -0.169425 0.978215 -0.119958 0.000000 
-0.004073 0.208509 -0.642403 112 100 81 -0.518635 0.034392 0.854304 0.000000 
-0.000196 0.162095 -0.677581 103 96 80 -0.866239 0.265485 -0.423259 0.000000 
-0.004556 0.159490 -0.682462 100 99 87 -0.111818 -0.835006 0.538760 0.000000 
0.001396 0.179596 -0.669839 81 75 60 -0.913562 0.289028 -0.286124 0.000000 
0.000725 0.197009 -0.650991 110 99 79 0.481044 -0.554792 0.678824 0.000000 
0.005100 0.249685 -0.614402 115 102 83 0.526770 -0.795692 0.298978 0.000000 
0.002903 0.269994 -0.607722 108 106 102 -0.079837 -0.252184 0.964380 0.000000 
0.005952 0.234450 -0.626421 116 105 92 -0.289951 0.781125 -0.552967 0.000000 
0.002219 0.317962 -0.581323 103 91 70 0.350137 0.490832 -0.797802 0.000000 
0.007002 0.355205 -0.558974 123 106 91 0.894739 -0.326036 0.305194 0.000000 
0.002418 0.264057 -0.606976 94 82 62 0.338486 0.568462 -0.749852 0.000000 
0.002767 0.303765 -0.587114 119 107 88 0.553309 0.301370 -0.776547 0.000000 
-0.003003 0.192585 -0.652117 110 98 77 -0.478377 -0.341698 0.808949 0.000000 
0.001985 0.188750 -0.659772 96 87 72 0.198532 -0.828983 0.522850 0.000000 
0.001166 0.186895 -0.662413 102 96 85 0.702993 -0.519313 0.485917 0.000000 
-0.002264 0.227947 -0.629548 112 100 81 0.075181 0.338975 -0.937787 0.000000 
0.002554 0.208041 -0.642567 113 105 88 -0.486117 0.459751 -0.743182 0.000000 
-0.002500 0.173567 -0.668998 94 84 66 0.832741 0.501485 -0.234640 0.000000 
-0.005273 0.207033 -0.644096 133 112 86 -0.785764 -0.032215 0.617686 0.000000 
0.004077 0.279392 -0.597009 105 94 77 0.006895 -0.630214 0.776391 0.000000 
0.003895 0.366622 -0.549517 117 101 81 0.706523 0.681894 -0.189330 0.000000 
0.004003 0.198367 -0.655716 101 92 80 -0.815686 0.286508 -0.502563 0.000000 
0.002738 0.289297 -0.594345 122 107 81 0.711780 0.286311 -0.641401 0.000000 
0.000357 0.259898 -0.609545 122 117 109 -0.227895 -0.503205 0.833576 0.000000 
0.002540 0.282976 -0.597108 142 120 92 -0.725754 -0.251405 0.640372 0.000000 
-0.007859 0.208699 -0.645779 113 101 85 0.453903 0.321973 -0.830846 0.000000 
0.004542 0.318210 -0.579635 123 106 83 -0.690652 -0.473255 0.546836 0.000000 
0.002377 0.256519 -0.611956 132 119 101 -0.397537 -0.068727 0.915009 0.000000 
-0.000705 0.295946 -0.596249 109 105 95 -0.831350 -0.228124 0.506771 0.000000 
-0.000854 0.181986 -0.663138 79 68 50 0.756872 -0.521474 0.393966 0.000000 
-0.009348 0.214447 -0.642349 104 99 87 0.626787 0.535556 -0.565966 0.000000 
-0.000572 0.197848 -0.649252 96 87 67 0.706773 -0.422077 0.567735 0.000000 
0.000132 0.311118 -0.586432 116 106 93 0.569092 0.528563 -0.629885 0.000000 
0.005354 0.307573 -0.582582 136 114 87 -0.735780 0.026730 0.676693 0.000000 
0.000425 0.180851 -0.667036 93 84 67 -0.589428 0.653241 -0.475237 0.000000 
0.005449 0.358317 -0.555254 118 103 83 0.003827 0.373806 -0.927499 0.000000 
-0.000214 0.255311 -0.612588 121 110 92 -0.438314 -0.334627 0.834210 0.000000 
-0.002768 0.152773 -0.687286 99 93 78 0.702241 0.538774 -0.465381 0.000000 
0.003578 0.253533 -0.611308 121 108 89 -0.104789 0.671536 -0.733524 0.000000 
0.003152 0.301070 -0.588398 114 105 86 -0.498017 -0.551676 0.669054 0.000000 
-0.002116 0.270271 -0.607328 118 114 102 -0.546115 -0.446519 0.708787 0.000000 
-0.003934 0.183090 -0.660845 98 86 62 -0.688277 -0.598718 0.409649 0.000000 
-0.002495 0.154822 -0.682979 98 92 76 0.749115 0.439590 -0.495568 0.000000 
0.006181 0.250485 -0.614047 119 106 89 0.782530 -0.471462 0.406657 0.000000 
0.002933 0.346697 -0.563434 118 106 88 0.254518 0.541826 -0.801028 0.000000 
-0.003382 0.219183 -0.636170 135 114 85 -0.092795 -0.901635 -0.422425 0.000000 
-0.001923 0.187664 -0.655088 130 112 91 -0.051692 0.540670 -0.839645 0.000000 
-0.000616 0.169782 -0.672768 72 65 48 -0.956222 -0.226016 -0.185895 0.000000 
0.006405 0.317684 -0.577683 123 111 91 -0.597312 -0.549933 -0.583775 0.000000 
-0.000286 0.342980 -0.568808 87 80 62 0.630526 0.380291 -0.676621 0.000000 
-0.008593 0.224519 -0.636870 108 100 86 -0.098807 -0.361391 0.927164 0.000000 
-0.000352 0.291660 -0.596582 120 110 96 0.527196 0.431343 -0.732125 0.000000 
-0.000124 0.342679 -0.568149 105 100 86 -0.547045 -0.343719 0.763282 0.000000 
-0.002481 0.165955 -0.672381 101 95 82 0.146326 0.539486 -0.829183 0.000000 
-0.002814 0.222690 -0.633702 112 96 76 0.891263 -0.194006 -0.409893 0.000000 
-0.000673 0.259598 -0.610311 119 113 102 -0.228339 -0.461214 0.857405 0.000000 
-0.002201 0.192939 -0.651316 110 103 89 0.220162 0.496503 -0.839651 0.000000 
-0.006105 0.199316 -0.652471 120 109 92 0.521541 0.632938 -0.572176 0.000000 
0.002752 0.352155 -0.560026 125 118 107 0.383892 0.331473 -0.861831 0.000000 
0.006391 0.304920 -0.585098 119 113 105 0.024305 -0.346670 -0.937672 0.000000 
-0.004000 0.166206 -0.675309 103 95 76 0.727116 0.680299 0.092170 0.000000 
-0.008718 0.192740 -0.657146 112 101 84 0.482728 0.539519 -0.689850 0.000000 
-0.002941 0.163185 -0.677126 108 97 74 0.875414 0.386881 -0.289782 0.000000 
0.006201 0.330685 -0.572461 123 109 87 0.655590 -0.304439 0.691027 0.000000 
0.005278 0.344203 -0.565086 127 107 83 0.095554 -0.126225 0.987389 0.000000 
0.000513 0.238480 -0.622171 114 103 84 0.250909 0.743258 -0.620171 0.000000 
-0.002373 0.188826 -0.653932 106 97 78 -0.085981 0.756342 -0.648501 0.000000 
0.001925 0.212500 -0.639640 108 98 79 0.395867 -0.657570 0.641007 0.000000 
-0.003020 0.238250 -0.624149 119 102 81 -0.849286 -0.235491 0.472501 0.000000 
-0.001261 0.293581 -0.596435 120 115 103 0.733668 0.123518 -0.668188 0.000000 
-0.002454 0.254915 -0.613869 105 97 80 -0.835198 -0.230557 0.499287 0.000000 
0.000598 0.346296 -0.566002 99 85 64 0.582974 0.430171 -0.689271 0.000000 
0.006245 0.299306 -0.586408 128 125 120 0.689271 -0.582974 0.430171 0.000000 
0.004326 0.350415 -0.560650 123 109 92 -0.210649 -0.449683 0.867993 0.000000 
0.006807 0.305698 -0.584601 119 111 95 -0.975939 0.218041 -0.001166 0.000000 
-0.006463 0.178317 -0.666113 108 101 85 0.064656 -0.656618 0.751447 0.000000 
-0.004700 0.165168 -0.677896 111 104 87 -0.437752 -0.728486 0.526955 0.000000 
-0.007746 0.162092 -0.680681 106 102 89 -0.004032 -0.858906 0.512118 0.000000 
0.001866 0.215052 -0.638254 100 89 70 -0.281075 0.349485 -0.893788 0.000000 
-0.001914 0.230949 -0.626829 124 121 116 -0.193869 -0.578554 0.792269 0.000000 
0.001504 0.201686 -0.645324 130 119 102 -0.546063 0.502378 -0.670397 0.000000 
-0.006485 0.167428 -0.674423 108 103 90 0.448028 0.701189 -0.554622 0.000000 
-0.003550 0.170360 -0.671111 106 100 86 -0.878511 -0.373481 0.297877 0.000000 
-0.001315 0.194113 -0.651443 95 85 67 0.403300 -0.097728 0.909834 0.000000 
-0.005150 0.201857 -0.646751 110 104 89 -0.568265 -0.425784 0.704118 0.000000 
-0.009914 0.222530 -0.637288 108 103 91 -0.690500 -0.402378 0.601083 0.000000 
-0.007168 0.149064 -0.692335 102 94 78 -0.380892 -0.880718 0.281529 0.000000 
-0.000744 0.319330 -0.582666 87 85 72 0.805416 0.173776 -0.566662 0.000000 
0.004922 0.303202 -0.583853 113 102 84 -0.482057 -0.342054 0.806610 0.000000 
-0.006394 0.182981 -0.662926 112 99 76 -0.012508 0.763010 -0.646265 0.000000 
0.003429 0.276479 -0.598984 113 97 76 -0.677287 -0.255371 0.689977 0.000000 
0.000289 0.194531 -0.651289 105 90 65 -0.402617 0.074559 -0.912327 0.000000 
-0.009059 0.198964 -0.653639 110 103 90 -0.154569 -0.387130 0.908977 0.000000 
0.000672 0.196520 -0.651471 109 98 77 0.410417 -0.633073 0.656335 0.000000 
-0.000194 0.190831 -0.655607 102 93 74 -0.776213 0.387296 -0.497489 0.000000 
-0.005059 0.153258 -0.690430 106 100 84 -0.523166 -0.690312 0.499766 0.000000 
0.005083 0.265980 -0.604917 124 112 95 -0.332075 0.362681 -0.870740 0.000000 
-0.004887 0.173863 -0.671175 108 99 80 0.015363 -0.727663 0.685763 0.000000 
0.003574 0.246473 -0.616730 118 108 90 -0.401866 0.860702 -0.312563 0.000000 
-0.005196 0.163877 -0.676540 115 110 101 -0.852662 -0.126374 0.506949 0.000000 
-0.003786 0.233431 -0.629912 107 100 85 -0.318509 -0.492818 0.809742 0.000000 
-0.008296 0.187249 -0.660726 106 97 81 0.559030 0.569163 -0.602942 0.000000 
0.004131 0.260889 -0.607809 112 103 87 -0.016852 -0.387596 0.921675 0.000000 
0.003231 0.208568 -0.642599 114 104 87 -0.291463 0.433339 -0.852799 0.000000 
0.002240 0.296339 -0.590530 113 103 83 -0.701517 -0.192724 0.686099 0.000000 
0.001746 0.268869 -0.604164 139 121 97 0.294595 0.254358 -0.921149 0.000000 
0.000583 0.364633 -0.554651 104 93 74 0.843018 0.305846 -0.442468 0.000000 
0.002593 0.375246 -0.544191 123 108 88 0.403095 0.632013 -0.661872 0.000000 
0.005701 0.222685 -0.632759 119 108 88 0.219887 0.662780 -0.715802 0.000000 
0.007330 0.308331 -0.583815 119 109 90 0.846878 -0.524122 0.089972 0.000000 
-0.003836 0.226172 -0.633889 119 101 75 0.857034 0.107668 -0.503885 0.000000 
0.003078 0.340506 -0.567180 116 100 78 -0.311510 -0.429295 0.847742 0.000000 
-0.002707 0.220893 -0.634733 134 114 89 0.715318 0.417957 -0.560029 0.000000 
-0.001432 0.256014 -0.613068 129 112 87 -0.556345 -0.337032 0.759532 0.000000 
0.006975 0.364541 -0.550534 128 119 108 0.009717 -0.756569 0.653842 0.000000 
-0.010391 0.204739 -0.649863 108 101 86 0.674654 0.483809 -0.557468 0.000000 
-0.002762 0.243268 -0.620644 105 93 73 -0.330096 -0.836973 0.436478 0.000000 
0.003345 0.220173 -0.635572 139 115 88 -0.118668 -0.813099 0.569902 0.000000 
0.005387 0.236135 -0.623368 113 102 84 0.615627 -0.442117 0.652331 0.000000 
0.004283 0.324985 -0.576181 128 112 86 -0.599543 -0.310219 0.737775 0.000000 
0.003068 0.291868 -0.592751 137 117 90 0.675460 0.336916 -0.655928 0.000000 
-0.000838 0.189016 -0.657241 90 80 61 -0.591893 0.713223 -0.375467 0.000000 
0.005168 0.368244 -0.547595 118 95 72 -0.230042 -0.624399 0.746462 0.000000 
0.001210 0.169695 -0.671044 95 88 77 0.939531 -0.105881 0.325686 0.000000 
0.003843 0.348417 -0.561708 128 110 81 -0.286523 -0.699499 0.654680 0.000000 
-0.002351 0.283770 -0.602472 108 104 96 -0.788763 -0.122828 0.602301 0.000000 
-0.002804 0.230438 -0.628012 113 106 93 0.551335 0.365930 -0.749750 0.000000 
-0.006306 0.148072 -0.697887 113 108 96 0.437966 -0.806949 0.396255 0.000000 
-0.010604 0.196847 -0.654844 106 98 84 0.514678 0.629426 -0.582177 0.000000 
-0.002012 0.188331 -0.654858 115 104 85 0.018158 -0.724915 0.688599 0.000000 
0.001036 0.228726 -0.628125 103 95 78 0.272011 -0.912036 0.306921 0.000000 
0.000220 0.169075 -0.670488 130 123 112 0.665264 -0.351430 0.658726 0.000000 
-0.004741 0.214203 -0.637088 127 109 84 -0.096979 -0.563060 0.820706 0.000000 
-0.001167 0.244503 -0.618736 135 118 94 -0.276736 -0.175857 0.944718 0.000000 
0.004615 0.295131 -0.594023 110 103 90 -0.080455 -0.407730 0.909551 0.000000 
-0.001985 0.291942 -0.599875 101 95 78 -0.937484 -0.089094 0.336431 0.000000 
-0.006123 0.211356 -0.642428 103 93 75 -0.594263 -0.506723 0.624566 0.000000 
-0.001058 0.242991 -0.619276 116 107 92 -0.232709 -0.525522 0.818335 0.000000 
0.000587 0.273018 -0.603188 113 105 89 0.476010 0.094637 -0.874333 0.000000 
0.001857 0.202330 -0.646625 118 111 94 0.528449 -0.633125 0.565592 0.000000 
0.003166 0.285432 -0.599639 110 109 103 0.019517 -0.919910 0.391645 0.000000 
0.000262 0.168578 -0.671721 101 92 77 -0.899005 0.300656 -0.318428 0.000000 
-0.011032 0.185881 -0.662499 99 92 77 -0.758008 -0.407654 0.509158 0.000000 
0.002102 0.360383 -0.555521 108 93 72 -0.616944 -0.343470 0.708102 0.000000 
0.004706 0.343051 -0.565820 112 99 78 -0.006942 0.728957 -0.684525 0.000000 
0.002411 0.331234 -0.573667 114 101 81 -0.486236 -0.085972 0.869588 0.000000 
-0.001243 0.272633 -0.606581 113 94 72 -0.662669 -0.355059 0.659396 0.000000 
0.003454 0.274258 -0.599705 118 102 81 -0.139293 -0.389739 0.910330 0.000000 
0.001622 0.315390 -0.583694 95 82 65 0.740425 0.493067 -0.456788 0.000000 
-0.001212 0.213977 -0.637971 114 107 97 -0.346916 0.267199 -0.899029 0.000000 
-0.002473 0.206223 -0.642300 113 103 84 0.401981 0.590565 -0.699745 0.000000 
0.003304 0.206697 -0.643930 105 92 74 0.537512 -0.487277 0.688216 0.000000 
-0.007636 0.171624 -0.673346 105 100 87 0.014966 0.534701 -0.844909 0.000000 
0.000268 0.226701 -0.631302 104 95 77 0.226743 -0.717760 0.658337 0.000000 
0.004506 0.268636 -0.604053 116 108 93 0.581932 -0.335543 0.740788 0.000000 
-0.001266 0.291027 -0.598881 116 105 94 0.866056 0.256328 -0.429236 0.000000 
0.003875 0.223001 -0.633073 117 106 91 0.389069 0.723964 -0.569650 0.000000 
0.005353 0.343986 -0.565025 146 129 106 -0.025995 -0.280998 0.959356 0.000000 
-0.006289 0.203349 -0.648826 112 103 89 -0.484482 -0.739124 0.467946 0.000000 
0.004883 0.313583 -0.581690 121 104 82 0.823619 0.292252 -0.486045 0.000000 
-0.002194 0.256168 -0.614227 113 98 78 -0.793193 -0.197152 0.576173 0.000000 
0.000220 0.266256 -0.606509 143 126 101 -0.921125 -0.119788 0.370378 0.000000 
0.003397 0.273304 -0.600421 99 90 70 0.232618 0.472837 -0.849891 0.000000 
0.000111 0.185839 -0.656911 80 72 56 0.826579 -0.185190 0.531480 0.000000 
-0.001976 0.227527 -0.629421 120 112 105 0.051721 -0.283837 0.957477 0.000000 
0.005842 0.334971 -0.570157 115 102 86 0.460090 -0.184924 0.868401 0.000000 
-0.009344 0.207813 -0.646940 103 95 80 0.369247 0.432637 -0.822485 0.000000 
0.002341 0.246423 -0.614595 132 118 96 -0.199115 0.736263 -0.646738 0.000000 
0.001581 0.316756 -0.582401 109 98 81 -0.525313 -0.511887 0.679719 0.000000 
-0.000905 0.234335 -0.624456 114 104 87 -0.296473 -0.132809 0.945762 0.000000 
0.004635 0.272598 -0.603732 116 110 93 -0.969295 -0.058182 0.238919 0.000000 
0.003900 0.360160 -0.554567 115 94 67 0.125034 0.572215 -0.810516 0.000000 
-0.004937 0.188417 -0.658328 123 104 80 -0.467746 -0.406243 0.784972 0.000000 
0.006005 0.221059 -0.635310 118 108 94 0.776482 -0.171707 0.606294 0.000000 
-0.002788 0.175316 -0.665070 118 112 105 -0.155233 -0.767121 0.622438 0.000000 
-0.006209 0.237885 -0.627265 111 100 85 -0.133378 -0.879149 0.457502 0.000000 
-0.000624 0.252612 -0.613604 150 134 109 -0.285228 -0.329563 0.900018 0.000000 
-0.000405 0.146978 -0.688934 103 97 86 -0.340168 0.698239 -0.629880 0.000000 
-0.000164 0.236896 -0.623855 114 103 85 0.157719 -0.496740 0.853449 0.000000 
0.003826 0.258880 -0.608326 128 116 99 0.203127 -0.401870 0.892883 0.000000 
-0.002298 0.235733 -0.625963 122 99 73 0.941498 0.066597 -0.330373 0.000000 
0.005095 0.226732 -0.630471 111 100 81 0.136918 0.030552 0.990111 0.000000 
-0.005982 0.192975 -0.654739 131 111 84 0.705713 0.004159 -0.708486 0.000000 
0.005721 0.323103 -0.574491 137 122 102 0.131345 0.046827 -0.990230 0.000000 
0.006631 0.354789 -0.557209 132 112 90 0.309074 -0.223616 0.924375 0.000000 
0.006153 0.312766 -0.578673 128 111 89 0.837707 -0.152176 0.524490 0.000000 
-0.002910 0.169695 -0.672138 114 102 80 -0.865753 -0.499942 0.023033 0.000000 
0.002137 0.246786 -0.617651 156 136 110 0.382696 -0.757250 -0.529261 0.000000 
-0.001836 0.212641 -0.638092 113 103 85 0.014206 0.383568 -0.923404 0.000000 
-0.005302 0.206178 -0.643856 135 116 91 -0.842969 -0.158520 0.514077 0.000000 
0.001592 0.353352 -0.562031 105 95 79 0.891151 0.229069 -0.391634 0.000000 
0.003495 0.273155 -0.600475 109 94 72 0.219742 0.539368 -0.812893 0.000000 
0.007432 0.353105 -0.557332 108 92 73 -0.381472 -0.741660 0.551743 0.000000 
-0.003860 0.183119 -0.660850 116 99 75 0.741239 0.554702 -0.377983 0.000000 
0.003587 0.202944 -0.648219 103 93 76 -0.546417 0.580251 -0.603935 0.000000 
0.001773 0.297000 -0.592866 116 100 76 0.677430 0.286667 -0.677430 0.000000 
0.004271 0.286405 -0.592733 115 110 103 0.307238 0.340210 -0.888742 0.000000 
-0.006454 0.205217 -0.645804 111 104 91 0.772610 0.533891 -0.343561 0.000000 
-0.001983 0.262503 -0.609777 122 106 81 -0.697466 -0.265323 0.665691 0.000000 
-0.006927 0.172698 -0.669342 110 97 78 0.119750 0.964435 -0.235636 0.000000 
0.000814 0.212768 -0.639127 97 87 67 0.230948 -0.350053 0.907814 0.000000 
0.002642 0.280479 -0.597807 123 106 83 -0.800739 -0.284742 0.527009 0.000000 
-0.001315 0.152507 -0.683898 97 87 72 -0.369808 -0.616347 0.695240 0.000000 
0.000277 0.348864 -0.563986 110 98 81 -0.694380 -0.454594 0.557835 0.000000 
-0.000446 0.328244 -0.576283 102 93 74 -0.738837 -0.381705 0.555357 0.000000 
-0.001949 0.221330 -0.633884 113 104 88 -0.343087 0.493088 -0.799472 0.000000 
-0.003840 0.185964 -0.658422 110 99 80 -0.834785 -0.317939 0.449499 0.000000 
-0.002230 0.152176 -0.684031 100 93 78 -0.476068 -0.686540 0.549566 0.000000 
0.005540 0.292295 -0.593868 114 109 95 -0.029292 -0.796465 0.603974 0.000000 
-0.007607 0.148766 -0.694234 106 102 93 -0.009297 -0.883232 0.468844 0.000000 
-0.000902 0.171303 -0.668806 88 80 65 -0.671620 0.275987 -0.687573 0.000000 
0.006208 0.220437 -0.634284 112 102 83 -0.119883 0.614215 -0.779979 0.000000 
-0.002533 0.194319 -0.651081 125 108 82 0.630108 0.488964 -0.603223 0.000000 
0.006368 0.258510 -0.609338 134 125 114 0.911222 -0.077638 0.404533 0.000000 
0.003583 0.270752 -0.601958 114 101 83 -0.196463 0.672924 -0.713145 0.000000 
0.007366 0.339208 -0.568619 116 101 78 -0.375939 -0.274091 0.885180 0.000000 
-0.008262 0.218830 -0.638934 106 100 81 0.245949 0.524382 -0.815189 0.000000 
-0.000174 0.344718 -0.564811 93 84 63 -0.412461 -0.396536 0.820144 0.000000 
0.001534 0.244813 -0.617910 115 104 91 -0.310682 -0.139739 0.940186 0.000000 
-0.002522 0.252163 -0.614361 96 89 75 0.522788 0.526150 -0.670715 0.000000 
-0.001150 0.225667 -0.630269 123 117 110 0.078294 -0.548060 0.832767 0.000000 
-0.003419 0.223440 -0.635648 106 90 71 -0.941038 -0.119817 0.316372 0.000000 
0.001414 0.237635 -0.621888 115 105 89 -0.399490 -0.767999 0.500585 0.000000 
0.006638 0.277080 -0.598651 131 123 111 0.301769 -0.371525 0.878012 0.000000 
-0.007414 0.227787 -0.634624 106 98 84 0.137964 -0.155365 0.978176 0.000000 
0.006019 0.295739 -0.588962 119 109 93 -0.741661 0.348922 -0.572881 0.000000 
-0.007992 0.148628 -0.694909 111 106 96 0.015083 -0.824068 0.566290 0.000000 
-0.007028 0.244434 -0.624388 109 101 88 -0.281951 -0.384478 0.879022 0.000000 
-0.004730 0.221604 -0.631401 142 125 102 0.805986 -0.260347 0.531608 0.000000 
-0.007010 0.214472 -0.639789 117 103 81 0.732462 0.139875 -0.666285 0.000000 
0.002191 0.307502 -0.585707 120 105 82 -0.737275 -0.202480 0.644536 0.000000 
0.000418 0.270369 -0.604300 121 112 96 0.801353 0.034963 -0.597169 0.000000 
0.004983 0.357698 -0.555740 120 99 79 -0.170894 -0.500795 0.848528 0.000000 
-0.003055 0.239316 -0.623986 118 102 82 -0.736970 -0.044019 0.674491 0.000000 
0.004064 0.256995 -0.609974 113 104 86 0.662331 -0.467824 0.585199 0.000000 
-0.002461 0.256783 -0.613359 105 95 78 0.828490 0.331711 -0.451189 0.000000 
0.003861 0.301428 -0.585030 124 122 117 0.840189 0.451931 -0.299735 0.000000 
0.001674 0.249416 -0.616256 157 132 105 -0.514263 -0.778649 0.359500 0.000000 
0.001264 0.350985 -0.562352 113 107 90 -0.660037 -0.244167 0.710446 0.000000 
0.005084 0.248750 -0.615204 118 106 86 -0.605257 0.601885 -0.520959 0.000000 
-0.010449 0.203300 -0.650213 107 97 82 -0.329113 -0.371974 0.867940 0.000000 
0.001438 0.347247 -0.561537 104 93 71 -0.020832 -0.612460 0.790227 0.000000 
-0.001878 0.154675 -0.682709 97 90 74 -0.052979 -0.723087 0.688722 0.000000 
-0.005246 0.188375 -0.658459 128 109 84 -0.424183 -0.427409 0.798367 0.000000 
0.001714 0.188444 -0.659822 99 91 79 0.243473 -0.804858 0.541224 0.000000 
-0.009404 0.172317 -0.674769 112 107 93 0.268352 0.725661 -0.633564 0.000000 
-0.002870 0.277494 -0.605691 112 108 100 -0.742939 -0.149191 0.652521 0.000000 
0.003341 0.359341 -0.555192 99 85 64 -0.251833 -0.462456 0.850126 0.000000 
0.002859 0.247992 -0.618232 155 134 107 0.613477 0.296327 -0.732008 0.000000 
-0.004332 0.199262 -0.650050 122 104 79 -0.776992 -0.611675 0.148786 0.000000 
0.004461 0.275338 -0.601920 114 111 102 -0.895712 0.150000 0.418570 0.000000 
-0.005999 0.225964 -0.635811 98 87 70 0.081316 -0.549237 0.831701 0.000000 
0.004062 0.264396 -0.607021 116 107 96 -0.707024 0.015340 -0.707024 0.000000 
-0.002670 0.158593 -0.682926 97 86 66 -0.359177 -0.915688 0.180298 0.000000 
-0.000911 0.220874 -0.634333 118 97 74 -0.823990 -0.034738 -0.565538 0.000000 
0.006100 0.217337 -0.637940 106 93 79 0.175513 -0.378138 0.908959 0.000000 
-0.000439 0.208942 -0.640432 98 88 69 0.390960 -0.541455 0.744296 0.000000 
0.005035 0.237490 -0.622108 121 110 100 0.490176 -0.694276 0.526981 0.000000 
-0.004763 0.146610 -0.700626 99 91 72 0.299476 0.790679 -0.533986 0.000000 
0.001050 0.353122 -0.560413 66 58 48 -0.706045 -0.193120 0.681326 0.000000 
0.003160 0.253144 -0.611870 116 103 83 -0.304879 -0.640407 0.704931 0.000000 
0.004439 0.333217 -0.570515 113 105 88 0.472076 0.613194 -0.633354 0.000000 
0.006984 0.347863 -0.562339 146 129 105 -0.568790 0.491609 -0.659393 0.000000 
-0.008567 0.204675 -0.649036 102 93 78 0.164924 0.877161 -0.450986 0.000000 
-0.002829 0.226447 -0.630260 115 105 87 -0.462529 -0.569395 0.679600 0.000000 
0.007104 0.233303 -0.626052 78 68 51 -0.014527 -0.442406 0.896697 0.000000 
0.002977 0.319122 -0.579991 116 102 80 0.474195 0.588136 -0.655160 0.000000 
-0.000049 0.311618 -0.586165 114 107 96 -0.569395 -0.462529 0.679600 0.000000 
-0.006711 0.213364 -0.638318 122 121 118 0.788886 0.177841 -0.588244 0.000000 
0.006288 0.309299 -0.581279 118 113 105 0.388637 -0.512221 0.765892 0.000000 
0.007330 0.330759 -0.573325 138 127 114 -0.689111 0.416788 -0.592802 0.000000 
0.000858 0.327856 -0.576084 94 87 71 0.497981 0.413080 -0.762483 0.000000 
-0.001270 0.164464 -0.683880 78 76 63 -0.509194 0.785477 -0.351778 0.000000 
0.000261 0.204685 -0.644357 108 99 85 -0.395105 0.692674 -0.603403 0.000000 
0.000348 0.259262 -0.610856 144 128 103 -0.076210 -0.605363 0.792293 0.000000 
-0.001474 0.220450 -0.635330 108 98 81 -0.594195 0.317226 0.739121 0.000000 
0.004934 0.205594 -0.646530 95 87 72 -0.546953 0.647929 -0.530123 0.000000 
0.005437 0.252488 -0.612711 127 118 106 0.494282 -0.160826 0.854296 0.000000 
0.005846 0.228105 -0.629566 119 108 95 0.630256 -0.325660 0.704786 0.000000 
0.003926 0.308657 -0.584321 128 109 83 -0.728826 -0.189525 0.657946 0.000000 
-0.006187 0.232869 -0.631552 96 91 74 -0.119296 -0.484370 0.866692 0.000000 
-0.003253 0.217110 -0.635230 125 110 89 -0.401596 0.089091 0.911473 0.000000 
0.008176 0.357163 -0.556012 112 94 77 -0.038303 0.693705 -0.719240 0.000000 
0.002612 0.240989 -0.619274 113 102 85 0.244532 0.855103 -0.457169 0.000000 
0.000090 0.180478 -0.664720 105 96 80 0.698348 -0.663351 0.268840 0.000000 
0.003872 0.337656 -0.569590 133 119 96 0.104523 -0.215342 0.970929 0.000000 
-0.000310 0.175730 -0.673835 85 80 62 0.838651 -0.493414 0.230667 0.000000 
0.002123 0.347125 -0.562897 113 103 83 0.445573 -0.422889 0.789069 0.000000 
0.004767 0.322891 -0.576940 147 127 100 0.793706 0.371899 -0.481375 0.000000 
-0.005590 0.234029 -0.630397 105 99 84 0.196483 0.549848 -0.811826 0.000000 
-0.001500 0.229374 -0.628382 109 101 86 -0.380291 -0.630526 0.676621 0.000000 
-0.005830 0.222636 -0.635630 117 106 90 -0.321688 -0.532946 0.782614 0.000000 
-0.000215 0.149667 -0.687632 106 102 92 0.633968 -0.337356 0.695899 0.000000 
-0.003895 0.237740 -0.625011 98 90 73 -0.403060 -0.839054 0.365420 0.000000 
0.004543 0.333467 -0.571234 117 106 88 -0.471424 -0.701305 0.534725 0.000000 
-0.002499 0.263376 -0.609648 107 89 64 0.661142 0.294377 -0.690097 0.000000 
-0.003868 0.229949 -0.632141 104 90 70 -0.773499 -0.589851 0.231894 0.000000 
-0.000143 0.298699 -0.593050 107 99 80 -0.565363 -0.323755 0.758649 0.000000 
-0.001947 0.140796 -0.700940 97 91 75 0.964815 0.204421 -0.165360 0.000000 
-0.004008 0.199667 -0.648489 131 110 84 0.750554 0.494348 -0.438508 0.000000 
0.001223 0.217682 -0.636680 112 101 86 -0.318770 -0.324756 0.890460 0.000000 
0.001755 0.358616 -0.556380 89 73 53 0.516965 0.574218 -0.634839 0.000000 
-0.005726 0.183013 -0.663329 107 99 80 -0.113627 -0.777680 0.618307 0.000000 
0.000967 0.232863 -0.624539 109 101 83 -0.067105 -0.436869 0.897019 0.000000 
0.001505 0.352048 -0.561557 104 94 74 0.700282 0.318604 -0.638825 0.000000 
-0.004075 0.266440 -0.610129 102 94 76 0.609174 0.292596 -0.737085 0.000000 
0.001684 0.333018 -0.573099 112 100 74 -0.355047 -0.753866 0.552835 0.000000 
0.001121 0.328493 -0.575607 103 89 67 0.614669 0.387258 -0.687177 0.000000 
-0.000905 0.234542 -0.624738 141 123 99 -0.250646 -0.101544 0.962738 0.000000 
-0.007266 0.203121 -0.650433 102 91 75 -0.263015 -0.472196 0.841340 0.000000 
0.004199 0.315749 -0.581514 139 123 100 -0.573606 -0.352613 0.739351 0.000000 
-0.002804 0.230438 -0.628012 113 106 93 0.551335 0.365930 -0.749750 0.000000 
0.001374 0.355745 -0.558738 85 75 62 0.512690 0.653890 -0.556395 0.000000 
0.002804 0.264135 -0.606678 119 102 81 -0.381697 -0.384838 0.840361 0.000000 
0.000376 0.238487 -0.621274 113 106 91 -0.364226 -0.586355 0.723552 0.000000 
0.001659 0.204178 -0.645482 103 95 78 -0.352172 0.669946 -0.653566 0.000000 
-0.006592 0.199371 -0.652802 124 108 86 -0.505464 -0.555843 0.659958 0.000000 
0.003887 0.279450 -0.596796 120 118 113 0.192289 0.472525 -0.860084 0.000000 
0.005136 0.303492 -0.583466 118 107 87 -0.263686 -0.528932 0.806660 0.000000 
0.006193 0.320215 -0.576742 117 105 88 0.622928 -0.388297 0.679107 0.000000 
-0.002300 0.252173 -0.615752 117 99 73 0.774887 0.404501 -0.485726 0.000000 
-0.001266 0.269005 -0.608283 115 100 78 0.618896 0.336250 -0.709862 0.000000 
-0.001863 0.175851 -0.665439 99 93 84 -0.400339 0.799069 -0.448572 0.000000 
-0.000420 0.326628 -0.578758 89 79 64 -0.325393 -0.620028 0.713922 0.000000 
0.004200 0.191573 -0.659185 93 84 76 0.617624 -0.460289 0.637710 0.000000 
0.006104 0.243798 -0.618098 129 118 108 0.678839 -0.199477 0.706673 0.000000 
-0.007025 0.226374 -0.635024 107 101 86 0.385937 -0.389087 0.836459 0.000000 
-0.000892 0.155928 -0.687021 85 82 69 0.211665 0.352774 -0.911454 0.000000 
-0.001352 0.253173 -0.613512 116 109 94 -0.355836 -0.222216 0.907745 0.000000 
0.000267 0.181660 -0.664206 90 81 62 -0.627265 0.600358 -0.496094 0.000000 
-0.007302 0.155701 -0.689424 107 103 91 -0.293027 -0.622883 0.725363 0.000000 
0.006181 0.305337 -0.582806 121 111 95 0.382164 -0.449323 0.807502 0.000000 
0.004686 0.362077 -0.551965 115 99 78 0.644680 0.584083 -0.493188 0.000000 
0.001633 0.304473 -0.587066 116 107 88 -0.484913 -0.216020 0.847464 0.000000 
-0.004594 0.275048 -0.605663 114 114 109 -0.562613 -0.586267 0.582888 0.000000 
0.006115 0.312273 -0.580093 145 125 102 0.422098 0.412468 -0.807282 0.000000 
-0.003289 0.217422 -0.634840 117 108 90 -0.399694 0.085941 0.912611 0.000000 
0.001965 0.368599 -0.549786 122 108 90 0.692395 0.472163 -0.545574 0.000000 
0.001867 0.201401 -0.648170 107 98 80 -0.258824 0.665322 -0.700255 0.000000 
0.000969 0.180870 -0.667561 89 81 64 -0.622109 0.601878 -0.500722 0.000000 
-0.002994 0.180733 -0.661127 120 101 77 -0.545930 -0.559451 0.623678 0.000000 
0.002796 0.291686 -0.593248 129 114 85 0.621463 0.326146 -0.712329 0.000000 
-0.002337 0.144436 -0.694596 95 89 74 0.806571 0.588273 -0.058119 0.000000 
-0.001055 0.174069 -0.673400 83 78 61 -0.967980 0.194627 -0.158537 0.000000 
-0.005718 0.164902 -0.677517 105 101 88 0.437161 -0.058561 -0.897475 0.000000 
-0.003448 0.166149 -0.676413 107 95 72 0.287922 0.910536 -0.296691 0.000000 
-0.001232 0.153126 -0.683684 104 96 82 0.184767 -0.609272 0.771134 0.000000 
0.007641 0.338477 -0.569155 120 107 88 0.182829 -0.434402 0.881968 0.000000 
-0.001269 0.228098 -0.629379 111 101 85 -0.190381 -0.399654 0.896678 0.000000 
-0.003645 0.242986 -0.623694 116 103 87 -0.405058 -0.532971 0.742880 0.000000 
0.000481 0.346618 -0.565367 103 97 80 0.714418 0.146508 -0.684210 0.000000 
0.000766 0.315170 -0.585429 108 102 92 -0.674654 -0.557468 0.483809 0.000000 
0.002482 0.195709 -0.653230 113 106 87 0.350869 -0.544897 0.761563 0.000000 
0.005265 0.324073 -0.574754 141 124 102 0.689048 0.276578 -0.669863 0.000000 
0.004061 0.194287 -0.653584 111 98 79 -0.455647 0.559127 -0.692650 0.000000 
-0.009270 0.162168 -0.682352 113 105 93 -0.693599 -0.597588 0.402254 0.000000 
0.005880 0.320663 -0.575153 122 108 89 -0.865054 0.263013 -0.427206 0.000000 
0.001620 0.245856 -0.616349 109 99 80 -0.147652 -0.931451 -0.332563 0.000000 
0.005349 0.321141 -0.576652 138 122 97 -0.800096 -0.233684 0.552484 0.000000 
0.003182 0.304151 -0.586877 132 113 82 -0.746388 -0.289285 0.599348 0.000000 
0.005022 0.233426 -0.626360 113 100 82 -0.786874 0.395861 -0.473417 0.000000 
-0.003006 0.241884 -0.623292 125 109 87 -0.704518 -0.333548 0.626419 0.000000 
-0.000199 0.311336 -0.588213 115 111 102 0.830793 0.364162 -0.420914 0.000000 
0.001556 0.216484 -0.637447 105 88 65 -0.227315 0.501924 -0.834506 0.000000 
-0.011138 0.186975 -0.661860 118 112 103 -0.675065 -0.344888 0.652181 0.000000 
0.006153 0.289509 -0.592868 120 114 106 0.969137 -0.040330 0.243201 0.000000 
-0.000777 0.171200 -0.678681 74 68 56 0.947540 -0.211932 0.239278 0.000000 
-0.003126 0.147851 -0.693243 94 83 67 0.756194 0.400146 -0.517740 0.000000 
-0.003409 0.158508 -0.682449 102 97 81 -0.817536 -0.475973 0.324168 0.000000 
-0.006690 0.148688 -0.695917 107 101 87 -0.220847 0.881905 -0.416497 0.000000 
0.002300 0.300806 -0.589455 113 101 80 0.598499 0.520947 -0.608615 0.000000 
0.001748 0.330033 -0.573742 113 100 79 0.506186 0.286786 -0.813345 0.000000 
-0.006686 0.219388 -0.638760 102 92 72 0.022635 -0.448696 0.893398 0.000000 
0.006814 0.313761 -0.579534 118 106 87 0.565134 -0.312185 0.763652 0.000000 
-0.002283 0.257914 -0.612749 127 111 89 0.868312 0.303680 -0.392190 0.000000 
-0.005538 0.173564 -0.668435 119 115 107 0.233394 -0.911833 -0.337770 0.000000 
0.004520 0.229635 -0.629905 110 96 77 0.151797 0.614703 -0.774014 0.000000 
