ply
format ascii 1.0
comment Created by Open3D
obj_info Generated by CloudCompare!
element vertex 616
property float x
property float y
property float z
property uchar red
property uchar green
property uchar blue
property float nx
property float ny
property float nz
property float scalar_leaf0
end_header
-0.054985 0.257236 -0.638907 107 96 79 0.278943 -0.849158 0.448466 0.000000 
-0.058291 0.266643 -0.605773 109 94 81 0.678901 -0.675691 0.287289 0.000000 
-0.054074 0.254288 -0.650341 100 80 55 0.316035 0.897659 -0.307133 0.000000 
-0.060901 0.272771 -0.589613 109 95 81 0.939967 -0.295026 -0.171527 0.000000 
-0.046220 0.248376 -0.679426 115 104 94 0.935364 -0.265043 0.234192 0.000000 
-0.052751 0.253811 -0.650341 102 92 77 -0.339802 0.840893 -0.421229 0.000000 
-0.070531 0.284635 -0.535913 80 69 57 -0.012526 -0.700058 0.713976 0.000000 
-0.066960 0.277420 -0.563246 111 96 79 0.353293 -0.862405 0.362549 0.000000 
-0.053816 0.252748 -0.654957 106 94 77 0.547520 0.782399 -0.296772 0.000000 
-0.053808 0.255277 -0.646727 100 89 73 0.244317 -0.924404 0.292895 0.000000 
-0.063343 0.269638 -0.590474 107 94 78 0.063152 -0.969574 0.236512 0.000000 
-0.060047 0.265264 -0.609645 102 95 90 0.376714 0.904979 -0.197739 0.000000 
-0.050070 0.251291 -0.660161 111 101 92 -0.805319 0.583162 -0.106694 0.000000 
-0.067505 0.282889 -0.549359 121 111 102 -0.605177 0.778085 -0.168358 0.000000 
-0.069405 0.281045 -0.554489 107 93 76 0.675513 0.737050 -0.020979 0.000000 
-0.069597 0.287503 -0.525539 99 92 77 0.441231 -0.790337 0.425069 0.000000 
-0.044160 0.243661 -0.697990 115 107 91 -0.706140 0.590919 -0.390105 0.000000 
-0.051041 0.251503 -0.661851 98 84 71 0.594710 -0.779116 0.198237 0.000000 
-0.063410 0.278233 -0.572764 117 104 93 0.940702 -0.077624 0.330233 0.000000 
-0.070801 0.288908 -0.523896 99 95 87 -0.084679 0.889822 -0.448382 0.000000 
-0.067930 0.287286 -0.533052 150 138 124 0.740570 -0.463475 0.486566 0.000000 
-0.058689 0.268328 -0.601160 100 85 72 -0.781846 0.604768 -0.151567 0.000000 
-0.059375 0.268353 -0.599386 105 93 87 0.559715 -0.783601 0.269609 0.000000 
-0.064684 0.276663 -0.567474 99 81 66 0.707165 -0.632727 0.315554 0.000000 
-0.067548 0.275859 -0.568825 114 109 105 -0.573074 -0.796190 0.194081 0.000000 
-0.050261 0.252030 -0.666743 92 80 68 -0.942626 0.265587 -0.202286 0.000000 
-0.067810 0.286585 -0.537287 104 99 90 0.934570 -0.343611 0.092254 0.000000 
-0.058797 0.263568 -0.614942 103 91 74 0.075547 -0.899696 0.429931 0.000000 
-0.064314 0.278453 -0.565199 116 96 85 0.822857 -0.511005 0.248555 0.000000 
-0.053552 0.252822 -0.653678 108 101 96 0.331521 0.903212 -0.272584 0.000000 
-0.067430 0.280132 -0.553801 118 104 94 0.595437 -0.795386 0.113207 0.000000 
-0.042998 0.230356 -0.750801 81 76 59 -0.801987 -0.582589 0.131935 0.000000 
-0.061759 0.266031 -0.616784 96 86 70 0.998711 0.019746 0.046766 0.000000 
-0.063819 0.274384 -0.577844 99 85 69 0.271256 -0.961272 0.048751 0.000000 
-0.047394 0.248536 -0.679387 103 94 78 0.929418 -0.278684 0.241903 0.000000 
-0.069876 0.282372 -0.542013 99 83 62 0.267225 -0.856646 0.441303 0.000000 
-0.063894 0.278793 -0.568101 110 92 75 0.993805 -0.103267 0.041085 0.000000 
-0.062483 0.271072 -0.588179 99 87 73 0.136211 -0.884653 0.445911 0.000000 
-0.067700 0.285785 -0.540424 92 82 65 -0.749701 0.578801 -0.320840 0.000000 
-0.056084 0.256581 -0.649186 98 86 69 -0.865355 -0.500853 0.017550 0.000000 
-0.046519 0.237387 -0.733156 85 79 63 -0.667208 -0.735563 0.117393 0.000000 
-0.055511 0.259644 -0.629130 115 106 91 0.669013 -0.665757 0.330437 0.000000 
-0.055771 0.255207 -0.647069 116 112 110 0.537385 0.830504 -0.146560 0.000000 
-0.052672 0.252150 -0.656627 102 90 74 -0.227891 0.918731 -0.322488 0.000000 
-0.069106 0.280276 -0.550757 115 99 74 -0.270423 -0.934571 0.231191 0.000000 
-0.048305 0.244406 -0.690475 98 90 74 -0.344490 -0.935043 0.083795 0.000000 
-0.054665 0.258914 -0.633085 112 95 77 0.576815 -0.546367 0.607262 0.000000 
-0.063654 0.281168 -0.562858 118 102 81 0.959579 -0.067361 0.273258 0.000000 
-0.057944 0.259705 -0.635094 97 85 76 -0.817737 -0.555584 0.150440 0.000000 
-0.068634 0.279198 -0.558321 115 97 71 -0.331865 -0.901197 0.278766 0.000000 
-0.071496 0.281291 -0.542273 115 113 108 0.387544 -0.860007 0.331960 0.000000 
-0.055503 0.255869 -0.645977 96 85 71 0.410517 0.887245 -0.210408 0.000000 
-0.044632 0.236248 -0.712068 89 80 63 -0.679225 0.715694 -0.162589 0.000000 
-0.049336 0.245526 -0.682994 112 102 87 -0.192799 -0.980553 0.036667 0.000000 
-0.039959 0.231953 -0.737948 93 90 77 0.644592 -0.758601 0.095008 0.000000 
-0.065828 0.281010 -0.556375 115 91 77 0.733395 -0.604447 0.311088 0.000000 
-0.053844 0.258046 -0.649901 124 117 112 -0.243571 -0.918074 0.312751 0.000000 
-0.053274 0.255703 -0.644575 108 90 73 0.426411 -0.832367 0.354031 0.000000 
-0.056775 0.264736 -0.617496 112 99 83 -0.987829 0.116840 0.102678 0.000000 
-0.055105 0.260503 -0.633847 115 105 100 0.987913 0.104797 0.114216 0.000000 
-0.038639 0.232679 -0.738094 50 47 39 0.675012 -0.690895 0.258887 0.000000 
-0.056233 0.255973 -0.651347 103 95 82 0.827295 0.553928 -0.093520 0.000000 
-0.068950 0.282412 -0.542710 110 103 91 -0.787829 0.586681 -0.187433 0.000000 
-0.061289 0.271542 -0.591456 104 91 78 0.876686 -0.434634 0.206192 0.000000 
-0.068409 0.280611 -0.549949 104 94 83 -0.268225 0.850656 -0.452150 0.000000 
-0.066653 0.275857 -0.578806 95 85 66 -0.643458 -0.758309 0.104544 0.000000 
-0.043783 0.234007 -0.725045 90 73 50 -0.506543 -0.835112 0.214482 0.000000 
-0.051745 0.250509 -0.661641 94 84 69 0.403487 -0.890605 0.209813 0.000000 
-0.043858 0.233180 -0.741697 67 57 40 -0.749658 -0.618194 0.236322 0.000000 
-0.058531 0.261090 -0.623765 112 111 109 0.377990 0.880973 -0.284622 0.000000 
-0.051139 0.245010 -0.677987 125 116 108 -0.358937 -0.927817 0.101586 0.000000 
-0.039463 0.232643 -0.743143 99 97 87 0.390312 0.779004 -0.490724 0.000000 
-0.059846 0.265106 -0.609505 112 108 104 0.383499 -0.860947 0.334214 0.000000 
-0.063046 0.272916 -0.582879 100 86 70 0.373564 -0.902659 0.213673 0.000000 
-0.051613 0.252901 -0.656916 94 82 68 0.738837 -0.555357 0.381705 0.000000 
-0.061891 0.275470 -0.581798 112 102 86 0.996852 -0.005274 0.079115 0.000000 
-0.040871 0.229646 -0.741719 67 62 49 0.327410 -0.944882 -0.001245 0.000000 
-0.054851 0.255897 -0.644442 111 95 77 -0.211879 -0.912378 0.350249 0.000000 
-0.061870 0.273422 -0.581370 121 102 83 0.857540 -0.465694 0.218529 0.000000 
-0.047772 0.239882 -0.720727 96 92 79 0.593042 0.798044 -0.106894 0.000000 
-0.061155 0.271610 -0.591378 107 96 82 0.876686 -0.434634 0.206192 0.000000 
-0.063568 0.276837 -0.572442 114 98 89 0.852377 -0.258621 0.454499 0.000000 
-0.066606 0.278900 -0.560299 120 103 91 0.745803 -0.612794 0.261269 0.000000 
-0.051941 0.252336 -0.655874 111 99 84 0.449234 -0.857353 0.251267 0.000000 
-0.051251 0.249891 -0.663683 96 85 75 -0.213610 0.681368 -0.700078 0.000000 
-0.061384 0.267054 -0.608147 93 81 65 0.631970 0.769164 -0.094868 0.000000 
-0.044255 0.234502 -0.729348 80 75 60 -0.803086 -0.592720 -0.061120 0.000000 
-0.049349 0.252151 -0.667405 110 97 85 0.924049 -0.255649 0.284213 0.000000 
-0.064959 0.273281 -0.580924 112 108 102 -0.159062 -0.916364 0.367390 0.000000 
-0.060404 0.265194 -0.614841 95 79 65 -0.612967 -0.768884 0.181903 0.000000 
-0.063856 0.273796 -0.581175 96 83 67 -0.088745 -0.913387 0.397303 0.000000 
-0.044612 0.235507 -0.730082 76 66 48 0.830303 0.554005 -0.060616 0.000000 
-0.056315 0.259946 -0.626660 103 90 78 0.674380 -0.654786 0.341272 0.000000 
-0.044636 0.238047 -0.707541 92 79 61 -0.366163 0.746972 -0.554940 0.000000 
-0.052027 0.247897 -0.672695 96 87 73 -0.452744 -0.884199 0.114960 0.000000 
-0.039144 0.229626 -0.748521 91 86 74 -0.190700 0.979888 -0.058769 0.000000 
-0.053767 0.255273 -0.646742 102 92 75 0.244317 -0.924404 0.292895 0.000000 
-0.044765 0.245394 -0.691772 116 107 91 -0.688236 0.697515 -0.199511 0.000000 
-0.049353 0.248038 -0.674773 103 94 78 0.647773 -0.708552 0.279902 0.000000 
-0.064450 0.274567 -0.574053 114 100 83 0.491419 -0.806308 0.329203 0.000000 
-0.069233 0.287707 -0.531875 101 89 78 0.823240 -0.208473 0.528030 0.000000 
-0.049115 0.241474 -0.709597 95 91 78 0.700772 0.700772 -0.133552 0.000000 
-0.041894 0.231387 -0.737231 68 62 47 0.373511 0.799923 -0.469694 0.000000 
-0.048384 0.240346 -0.713198 83 74 56 0.444805 0.860765 -0.247451 0.000000 
-0.069061 0.283969 -0.538306 99 92 86 0.629654 -0.713393 0.307580 0.000000 
-0.059981 0.264677 -0.625071 91 87 81 0.934180 0.291844 0.205268 0.000000 
-0.062371 0.267523 -0.608131 94 85 71 -0.676863 -0.727221 0.114045 0.000000 
-0.063911 0.278960 -0.567775 120 102 92 -0.994974 0.091454 -0.040769 0.000000 
-0.059857 0.267886 -0.599635 109 99 95 0.087376 -0.992912 0.080568 0.000000 
-0.042806 0.234172 -0.723133 82 72 54 -0.004051 0.849278 -0.527930 0.000000 
-0.063313 0.272278 -0.587235 97 84 68 -0.093208 -0.928023 0.360673 0.000000 
-0.052184 0.255044 -0.651793 111 98 91 -0.969168 0.160884 -0.186626 0.000000 
-0.062342 0.273575 -0.581930 107 95 80 0.857558 -0.484320 0.173289 0.000000 
-0.066574 0.280621 -0.555972 116 96 85 -0.712708 0.672512 -0.199435 0.000000 
-0.065769 0.273120 -0.582521 112 107 104 0.686316 0.721437 -0.092192 0.000000 
-0.046069 0.243834 -0.690256 106 93 81 0.558160 -0.828101 0.052020 0.000000 
-0.050760 0.249835 -0.665676 92 82 68 0.794367 -0.599055 0.100571 0.000000 
-0.069488 0.283365 -0.538833 75 61 51 -0.130945 0.924882 -0.356996 0.000000 
-0.068291 0.279521 -0.552697 113 100 79 0.272964 -0.909394 0.313836 0.000000 
-0.065916 0.274717 -0.581870 91 80 64 0.600444 0.793288 -0.100805 0.000000 
-0.052613 0.252000 -0.657433 105 86 68 -0.166884 0.924175 -0.343585 0.000000 
-0.068198 0.286758 -0.542276 119 109 100 -0.514869 0.841299 -0.164699 0.000000 
-0.054134 0.252534 -0.658002 100 88 73 -0.640219 -0.744619 0.188842 0.000000 
-0.056871 0.258497 -0.633952 105 93 75 0.505891 0.804034 -0.312416 0.000000 
-0.068026 0.279652 -0.552963 115 104 94 0.356975 -0.900518 0.248267 0.000000 
-0.048423 0.248728 -0.676188 101 89 75 0.708205 -0.593183 0.382858 0.000000 
-0.044778 0.235623 -0.714596 94 82 63 0.614229 -0.708726 0.347031 0.000000 
-0.068745 0.280518 -0.553835 117 99 75 -0.503410 -0.863573 -0.028649 0.000000 
-0.065830 0.281541 -0.556101 113 97 80 -0.820937 0.500039 -0.275723 0.000000 
-0.053239 0.252038 -0.656419 113 103 97 0.306011 0.932005 -0.194226 0.000000 
-0.050068 0.245564 -0.687977 98 90 74 -0.569734 -0.814530 0.109284 0.000000 
-0.071399 0.285497 -0.533434 80 73 61 -0.490670 0.808255 -0.325525 0.000000 
-0.041622 0.234629 -0.726245 93 86 73 0.701211 -0.712453 -0.026699 0.000000 
-0.066471 0.283275 -0.546096 117 103 92 0.850167 -0.495806 0.177180 0.000000 
-0.059535 0.266356 -0.606300 101 87 71 0.067019 0.936949 -0.342979 0.000000 
-0.069992 0.284499 -0.536229 102 97 95 0.491147 -0.416088 0.765275 0.000000 
-0.061294 0.266757 -0.603017 118 120 118 0.253399 0.949907 -0.182935 0.000000 
-0.059449 0.263122 -0.615972 111 104 101 0.478389 0.830558 -0.285163 0.000000 
-0.048018 0.242736 -0.696401 95 86 70 -0.579271 -0.773931 0.255884 0.000000 
-0.068458 0.279922 -0.557667 114 96 68 0.170873 -0.985100 -0.019496 0.000000 
-0.045031 0.232479 -0.750124 87 85 72 -0.748828 -0.650572 0.126541 0.000000 
-0.043572 0.234116 -0.725350 85 75 57 -0.104238 -0.979836 0.170460 0.000000 
-0.054138 0.254483 -0.647995 115 106 103 0.032107 -0.938820 0.342907 0.000000 
-0.047684 0.247373 -0.679073 100 91 75 0.741429 -0.600509 0.299454 0.000000 
-0.051807 0.248827 -0.669675 97 88 74 -0.139132 -0.944206 0.298526 0.000000 
-0.060885 0.269958 -0.594428 102 89 74 -0.391424 0.855563 -0.338821 0.000000 
-0.060565 0.263218 -0.625042 96 87 70 0.696709 0.711377 -0.092406 0.000000 
-0.042914 0.238546 -0.711937 95 88 73 -0.947567 0.307992 -0.085189 0.000000 
-0.046737 0.239230 -0.720699 95 88 70 -0.702669 -0.680953 0.206302 0.000000 
-0.045184 0.237997 -0.710028 89 74 56 0.282624 -0.498105 0.819765 0.000000 
-0.057889 0.259439 -0.629921 102 92 79 -0.490324 -0.871237 0.022963 0.000000 
-0.054330 0.251422 -0.663974 112 102 83 -0.645419 -0.752740 0.129680 0.000000 
-0.070909 0.290827 -0.518064 123 123 117 -0.094826 0.954752 -0.281879 0.000000 
-0.050130 0.242829 -0.707478 100 97 86 0.679060 0.732931 -0.041112 0.000000 
-0.057007 0.258392 -0.641048 99 86 74 0.823324 0.566122 -0.040537 0.000000 
-0.069946 0.281896 -0.542226 80 66 50 -0.122675 0.939613 -0.319496 0.000000 
-0.050066 0.244445 -0.696913 101 95 81 -0.719411 -0.694070 -0.026749 0.000000 
-0.062735 0.270153 -0.595819 93 81 68 0.477037 0.869043 -0.131149 0.000000 
-0.067431 0.276699 -0.566319 70 59 49 0.503410 0.863573 -0.028649 0.000000 
-0.067311 0.282673 -0.547454 110 92 73 -0.783695 0.618106 0.061382 0.000000 
-0.054177 0.253579 -0.652212 100 89 73 -0.489717 -0.869838 -0.059654 0.000000 
-0.052717 0.251839 -0.657823 100 90 74 0.280007 0.932886 -0.226538 0.000000 
-0.055997 0.257866 -0.634018 115 110 106 0.065625 0.950922 -0.302391 0.000000 
-0.059811 0.264736 -0.615405 86 66 48 0.615746 0.734097 -0.286282 0.000000 
-0.061576 0.271598 -0.589497 101 86 72 -0.734214 0.678906 0.004148 0.000000 
-0.069873 0.287549 -0.529319 104 99 93 -0.905318 0.424733 -0.001299 0.000000 
-0.044700 0.236609 -0.709916 88 77 59 -0.451104 0.694134 -0.560967 0.000000 
-0.054239 0.251871 -0.658027 116 110 108 -0.601316 -0.786337 0.141750 0.000000 
-0.045249 0.236396 -0.730189 81 64 43 -0.787175 -0.615376 0.040837 0.000000 
-0.059695 0.262956 -0.626118 97 85 66 -0.785478 -0.577877 0.221545 0.000000 
-0.064731 0.272311 -0.582637 121 120 116 -0.297804 -0.940073 0.166057 0.000000 
-0.057701 0.259824 -0.634584 101 88 74 0.848340 0.512508 -0.132872 0.000000 
-0.055918 0.260030 -0.627047 111 99 83 0.823673 -0.548623 0.143440 0.000000 
-0.068829 0.280249 -0.551003 90 72 51 0.284831 0.928180 -0.239485 0.000000 
-0.051072 0.246422 -0.682148 98 90 75 0.505882 0.854666 0.116742 0.000000 
-0.049854 0.245997 -0.681468 98 89 74 0.281550 0.903612 -0.322824 0.000000 
-0.061439 0.268201 -0.597605 110 101 95 -0.168974 -0.865440 0.471658 0.000000 
-0.049554 0.244672 -0.692572 97 88 71 0.321891 0.944988 -0.058173 0.000000 
-0.067338 0.279034 -0.557645 114 99 90 -0.636723 0.757143 -0.146010 0.000000 
-0.071951 0.282955 -0.538560 102 93 78 -0.457961 0.876916 -0.145912 0.000000 
-0.057262 0.259220 -0.644904 98 85 67 -0.844534 -0.535459 -0.006778 0.000000 
-0.054544 0.254507 -0.654336 98 84 70 -0.561622 -0.826406 0.040414 0.000000 
-0.045697 0.235396 -0.737557 87 82 66 0.826590 0.562521 -0.017880 0.000000 
-0.062232 0.276054 -0.576530 114 99 92 -0.970663 0.204819 -0.125945 0.000000 
-0.059224 0.267473 -0.602804 117 103 85 -0.575540 0.799109 -0.173719 0.000000 
-0.055332 0.255778 -0.646404 104 91 75 -0.414848 -0.873444 0.254943 0.000000 
-0.068911 0.278687 -0.557413 110 93 73 -0.328704 -0.913711 0.238926 0.000000 
-0.070012 0.282933 -0.538561 94 82 65 0.095954 0.990750 0.095954 0.000000 
-0.044541 0.233321 -0.742477 69 64 51 0.765798 0.619642 -0.172038 0.000000 
-0.057480 0.258877 -0.638559 95 84 74 -0.986666 -0.131476 0.095942 0.000000 
-0.052821 0.253483 -0.650828 104 96 82 0.215125 -0.932207 0.291051 0.000000 
-0.063868 0.274196 -0.576849 109 100 92 -0.208815 0.977255 0.036990 0.000000 
-0.069171 0.282866 -0.538370 103 88 68 0.353111 -0.917522 0.182937 0.000000 
-0.045851 0.237237 -0.720928 85 77 58 0.759211 0.636419 -0.136269 0.000000 
-0.068241 0.285709 -0.539369 89 78 60 -0.859456 0.289550 -0.421302 0.000000 
-0.065628 0.277715 -0.564204 113 97 87 -0.580433 0.718553 -0.383119 0.000000 
-0.070693 0.285737 -0.534626 91 79 67 0.603881 -0.708619 0.364947 0.000000 
-0.069613 0.285975 -0.532607 120 106 92 -0.427645 0.885941 -0.179523 0.000000 
-0.064911 0.281347 -0.561764 122 109 103 -0.904034 0.277825 -0.324864 0.000000 
-0.059272 0.266526 -0.606112 100 87 71 0.188034 -0.869101 0.457500 0.000000 
-0.066601 0.274054 -0.575473 118 114 110 -0.516993 -0.846120 0.129612 0.000000 
-0.054308 0.254296 -0.649475 99 89 73 -0.435048 -0.777220 0.454601 0.000000 
-0.068655 0.278686 -0.558266 98 83 67 -0.311531 -0.920237 0.236879 0.000000 
-0.045768 0.243133 -0.689092 113 102 84 0.510327 -0.799672 0.316371 0.000000 
-0.061120 0.263708 -0.622756 97 89 74 0.653348 0.750249 -0.101306 0.000000 
-0.055014 0.254835 -0.647749 108 101 97 -0.440725 -0.879985 0.177168 0.000000 
-0.039890 0.226209 -0.751539 72 68 53 0.554690 0.694611 -0.458077 0.000000 
-0.040900 0.229172 -0.739932 67 56 41 -0.371921 -0.925104 0.076533 0.000000 
-0.063111 0.272823 -0.582267 109 98 92 0.185371 -0.888905 0.418909 0.000000 
-0.069011 0.279432 -0.556283 111 98 79 -0.224975 -0.907156 0.355605 0.000000 
-0.038853 0.227421 -0.751485 89 86 73 -0.515834 -0.751644 0.411030 0.000000 
-0.066569 0.279400 -0.559759 118 100 89 0.789894 -0.554339 0.262251 0.000000 
-0.059412 0.265274 -0.608628 109 99 82 -0.225938 0.916704 -0.329553 0.000000 
-0.067313 0.284843 -0.542517 114 104 87 -0.621287 0.768711 -0.151937 0.000000 
-0.047117 0.242617 -0.694988 95 86 70 -0.504532 -0.785007 0.359459 0.000000 
-0.064951 0.281517 -0.562014 120 112 103 0.883974 -0.227308 0.408560 0.000000 
-0.045079 0.235174 -0.737907 85 78 62 0.816349 0.576329 -0.037678 0.000000 
-0.061254 0.273288 -0.586698 111 100 95 0.830285 -0.531083 0.169049 0.000000 
-0.069372 0.280568 -0.551700 96 81 60 -0.578933 -0.814948 0.026378 0.000000 
-0.063767 0.275275 -0.573581 110 97 90 0.695073 -0.676159 0.244300 0.000000 
-0.066837 0.279978 -0.557090 115 97 87 0.702967 -0.671514 0.234322 0.000000 
-0.062728 0.270823 -0.588056 96 83 64 0.098755 -0.848721 0.519538 0.000000 
-0.054575 0.254039 -0.650361 101 91 77 0.671070 0.644818 -0.365889 0.000000 
-0.046576 0.242807 -0.688435 102 90 79 0.200669 0.920802 -0.334449 0.000000 
-0.042766 0.231234 -0.747256 69 62 44 -0.804421 -0.579243 0.131848 0.000000 
-0.048969 0.242108 -0.703767 91 86 72 -0.596580 -0.799732 0.067240 0.000000 
-0.057398 0.267723 -0.605613 109 95 82 0.956695 -0.217491 0.193474 0.000000 
-0.043459 0.242115 -0.705345 105 97 81 -0.872498 0.476814 -0.106749 0.000000 
-0.068987 0.280715 -0.549307 86 72 53 -0.171145 -0.917961 0.357849 0.000000 
-0.054588 0.252966 -0.651508 95 78 56 -0.438294 -0.898831 -0.001308 0.000000 
-0.057617 0.262960 -0.617688 110 99 84 -0.252695 0.963798 -0.085078 0.000000 
-0.043221 0.236165 -0.717141 97 91 79 0.727623 0.685564 -0.023833 0.000000 
-0.046335 0.242583 -0.691559 103 91 77 -0.075854 0.992893 -0.091704 0.000000 
-0.052792 0.255723 -0.645972 110 93 74 0.573421 -0.814861 0.084792 0.000000 
-0.056678 0.260913 -0.638776 108 104 99 -0.603572 0.456441 0.653730 0.000000 
-0.041644 0.228540 -0.747726 66 58 41 -0.324635 -0.938883 0.114498 0.000000 
-0.039001 0.230207 -0.743036 55 50 39 0.698460 -0.689209 0.192732 0.000000 
-0.058762 0.264976 -0.610764 111 104 100 0.900365 -0.297165 0.317863 0.000000 
-0.052437 0.256608 -0.646097 106 95 80 0.760871 -0.646239 0.058749 0.000000 
-0.045849 0.236419 -0.735115 85 77 59 -0.694969 -0.704014 0.146230 0.000000 
-0.046401 0.241345 -0.696857 90 81 64 0.093160 0.896842 -0.432431 0.000000 
-0.068635 0.283616 -0.543062 105 92 78 0.679135 -0.685497 0.262429 0.000000 
-0.043406 0.233932 -0.724404 84 76 58 0.348101 0.752870 -0.558581 0.000000 
-0.070453 0.283116 -0.539202 70 58 47 0.275109 0.904769 -0.325128 0.000000 
-0.060998 0.272800 -0.593361 121 110 105 -0.963222 0.130936 -0.234648 0.000000 
-0.062199 0.274945 -0.582477 111 99 91 -0.976081 0.136576 -0.169154 0.000000 
-0.066407 0.280373 -0.556943 118 99 89 0.695302 -0.679606 0.233860 0.000000 
-0.054280 0.260138 -0.637388 115 107 91 -0.980247 -0.190304 0.053860 0.000000 
-0.054570 0.252266 -0.660082 105 94 81 -0.624495 -0.702761 0.340782 0.000000 
-0.050851 0.248702 -0.665687 98 90 75 0.169675 -0.983640 0.060513 0.000000 
-0.071841 0.287939 -0.524888 93 86 73 0.189715 -0.849982 0.491466 0.000000 
-0.065157 0.274273 -0.576980 91 78 62 -0.073251 -0.995989 0.051385 0.000000 
-0.070015 0.282457 -0.543984 86 70 52 0.884761 0.459742 0.076392 0.000000 
-0.064684 0.275939 -0.569614 119 104 86 0.739819 -0.637023 0.216494 0.000000 
-0.049584 0.248217 -0.674406 93 83 66 0.671016 -0.702446 0.237291 0.000000 
-0.048855 0.241859 -0.707369 87 79 63 -0.569401 -0.817343 0.087933 0.000000 
-0.055808 0.260841 -0.626219 113 100 84 -0.906733 0.365875 -0.209691 0.000000 
-0.056766 0.256821 -0.651422 106 100 85 -0.926419 -0.375505 0.027286 0.000000 
-0.050631 0.250129 -0.663429 108 99 91 0.728631 -0.560865 0.393099 0.000000 
-0.065154 0.275740 -0.568077 122 115 106 0.418545 -0.847981 0.325189 0.000000 
-0.053534 0.252077 -0.658720 96 85 69 -0.477310 -0.846348 0.236368 0.000000 
-0.056153 0.257365 -0.642509 104 92 76 -0.403966 -0.893975 0.193962 0.000000 
-0.059008 0.262109 -0.625569 102 93 79 0.641527 0.759509 -0.107658 0.000000 
-0.054701 0.253039 -0.668053 104 97 83 0.807879 0.584819 0.072924 0.000000 
-0.070036 0.287607 -0.531912 112 102 86 0.835365 -0.398018 0.379139 0.000000 
-0.060355 0.270829 -0.594010 107 98 96 -0.529808 0.712500 -0.460052 0.000000 
-0.066867 0.277017 -0.563555 121 114 106 -0.275677 0.911630 -0.304849 0.000000 
-0.044685 0.235596 -0.731841 76 69 52 0.749918 0.661530 0.001381 0.000000 
-0.064732 0.273439 -0.582155 96 84 66 0.430304 0.859078 -0.277171 0.000000 
-0.046438 0.237923 -0.732255 78 72 58 -0.653987 -0.752592 0.076854 0.000000 
-0.063227 0.274296 -0.577356 117 109 98 -0.531080 0.847295 -0.006757 0.000000 
-0.067976 0.279424 -0.555480 110 95 75 0.386987 -0.880885 0.272547 0.000000 
-0.052207 0.245289 -0.690164 122 110 98 0.669148 0.721210 -0.179154 0.000000 
-0.064730 0.281098 -0.561610 119 100 90 0.921290 -0.227109 0.315667 0.000000 
-0.041511 0.234542 -0.725715 85 80 64 0.685276 -0.672497 0.279542 0.000000 
-0.062844 0.274730 -0.577241 109 96 89 0.668303 -0.742401 0.047023 0.000000 
-0.045804 0.239421 -0.707892 81 67 50 -0.049418 -0.954144 -0.295240 0.000000 
-0.043706 0.231879 -0.749707 78 70 56 -0.775222 -0.616892 0.135925 0.000000 
-0.060861 0.266062 -0.611745 94 82 67 0.584152 0.784520 -0.208075 0.000000 
-0.048874 0.243514 -0.696081 102 94 79 -0.543098 -0.801420 0.250541 0.000000 
-0.040977 0.227963 -0.749645 61 55 38 0.193144 0.914214 -0.356243 0.000000 
-0.058707 0.262606 -0.617623 112 103 96 -0.069587 -0.938774 0.337433 0.000000 
-0.057151 0.263976 -0.615165 120 107 90 -0.532007 0.629964 -0.565786 0.000000 
-0.062492 0.269505 -0.596810 90 77 63 0.540970 0.738284 -0.402850 0.000000 
-0.061342 0.267944 -0.603289 96 83 68 -0.601823 -0.780702 0.168268 0.000000 
-0.061099 0.267853 -0.601764 99 85 69 -0.424882 -0.880853 0.208740 0.000000 
-0.051958 0.252699 -0.654293 110 96 80 0.580939 -0.748302 0.320241 0.000000 
-0.068157 0.279015 -0.556236 112 102 94 0.382874 -0.862621 0.330594 0.000000 
-0.052507 0.253122 -0.653069 106 97 91 0.597526 -0.794254 0.110109 0.000000 
-0.067807 0.286951 -0.533536 113 102 88 0.620257 -0.640319 0.453072 0.000000 
-0.049667 0.247397 -0.675962 115 97 81 0.245632 -0.920761 0.303090 0.000000 
-0.047263 0.241149 -0.705627 82 67 47 0.632187 0.774533 -0.020933 0.000000 
-0.059469 0.263368 -0.616167 95 81 68 -0.516349 -0.812743 0.269874 0.000000 
-0.049889 0.246109 -0.684842 97 77 59 -0.564060 -0.804279 0.187006 0.000000 
-0.052776 0.252997 -0.653591 98 88 73 -0.481787 0.842745 -0.240129 0.000000 
-0.055033 0.255456 -0.652333 104 95 86 -0.826590 -0.562521 -0.017880 0.000000 
-0.066705 0.284645 -0.546285 97 77 53 -0.914230 0.367109 -0.171507 0.000000 
-0.070598 0.285598 -0.538036 101 90 73 -0.744277 0.639492 -0.192618 0.000000 
-0.050524 0.249106 -0.668978 100 90 74 0.479047 -0.821447 0.309417 0.000000 
-0.064632 0.278498 -0.564392 116 96 84 -0.737693 0.582048 -0.342095 0.000000 
-0.063389 0.273708 -0.574212 124 110 96 -0.317697 0.877087 -0.360259 0.000000 
-0.071088 0.285816 -0.533010 82 73 64 -0.194734 0.954870 -0.224280 0.000000 
-0.069264 0.282859 -0.552358 96 84 66 -0.332387 0.923612 -0.190946 0.000000 
-0.048715 0.245014 -0.687915 111 89 69 0.376293 0.902232 -0.210666 0.000000 
-0.045473 0.243287 -0.693754 113 103 87 0.397123 -0.901769 0.170605 0.000000 
-0.049347 0.244557 -0.694658 102 92 77 -0.453556 -0.873352 0.177606 0.000000 
-0.041493 0.228284 -0.750659 65 59 43 -0.564771 -0.757855 0.326634 0.000000 
-0.051787 0.253271 -0.656667 103 91 83 0.825992 -0.457835 0.328823 0.000000 
-0.053532 0.256153 -0.643804 103 90 76 0.259591 -0.819190 0.511411 0.000000 
-0.052517 0.249052 -0.677615 85 77 65 0.678209 0.728229 -0.098568 0.000000 
-0.060496 0.267079 -0.604149 96 83 68 0.111420 0.980744 -0.160396 0.000000 
-0.068138 0.280972 -0.549386 99 83 63 -0.456113 0.832289 -0.315047 0.000000 
-0.054740 0.255060 -0.648490 97 85 69 0.556166 0.830816 -0.020599 0.000000 
-0.069153 0.278483 -0.559455 100 86 68 0.471455 0.868471 -0.153260 0.000000 
-0.051845 0.254082 -0.652617 110 100 92 -0.914455 0.341301 -0.217453 0.000000 
-0.045307 0.242491 -0.695353 108 97 80 0.433157 -0.786820 0.439646 0.000000 
-0.064043 0.275701 -0.571616 119 109 100 0.818008 -0.498938 0.286224 0.000000 
-0.055570 0.257746 -0.637726 118 94 76 0.118518 -0.981136 0.152730 0.000000 
-0.067936 0.284575 -0.541832 118 110 105 -0.747488 0.661405 -0.061693 0.000000 
-0.065807 0.276483 -0.566845 98 81 65 -0.172054 0.892078 -0.417845 0.000000 
-0.062479 0.270850 -0.590646 96 80 65 -0.334422 0.931702 -0.141751 0.000000 
-0.069934 0.282485 -0.541374 83 70 50 -0.315231 -0.872597 0.373100 0.000000 
-0.069567 0.281721 -0.546114 74 64 47 0.630041 0.682681 -0.370128 0.000000 
-0.059812 0.265844 -0.608080 98 84 69 -0.161631 0.902561 -0.399072 0.000000 
-0.065875 0.283639 -0.551061 119 105 86 0.727331 -0.684462 0.050013 0.000000 
-0.056583 0.256595 -0.650155 101 92 77 -0.882306 -0.469022 -0.039425 0.000000 
-0.059459 0.263283 -0.621602 97 85 67 0.605730 0.789638 -0.097793 0.000000 
-0.057812 0.261066 -0.624882 103 92 78 0.356391 0.775674 -0.520879 0.000000 
-0.059668 0.269659 -0.598512 103 87 72 -0.919940 0.212513 -0.329467 0.000000 
-0.045156 0.236701 -0.729703 81 70 53 0.781889 0.614656 -0.104154 0.000000 
-0.063892 0.276883 -0.571115 116 101 93 0.956082 -0.233353 0.177349 0.000000 
-0.060904 0.273334 -0.591890 121 111 101 -0.893409 0.402107 -0.200323 0.000000 
-0.066303 0.280596 -0.556759 106 90 73 0.680389 -0.677187 0.280160 0.000000 
-0.044831 0.244991 -0.689833 108 99 87 -0.839210 0.475809 -0.263312 0.000000 
-0.050104 0.253690 -0.666186 110 102 89 -0.988166 0.061543 -0.140503 0.000000 
-0.053839 0.254947 -0.645278 113 100 83 0.095888 -0.949684 0.298172 0.000000 
-0.065103 0.279043 -0.570529 113 107 97 0.956563 0.099939 0.273860 0.000000 
-0.040975 0.234743 -0.728293 94 86 70 0.256807 -0.838082 0.481320 0.000000 
-0.062081 0.274459 -0.580918 111 100 86 -0.948578 0.261911 -0.177773 0.000000 
-0.069601 0.281322 -0.550202 94 80 65 -0.421252 -0.728518 0.540193 0.000000 
-0.061205 0.263284 -0.627297 102 94 79 -0.774544 -0.602764 0.191719 0.000000 
-0.042130 0.235059 -0.722782 90 81 66 -0.582768 0.592903 -0.555741 0.000000 
-0.054138 0.258308 -0.647406 114 104 101 0.194784 0.888976 0.414465 0.000000 
-0.053565 0.255183 -0.647169 99 86 72 -0.375981 0.867059 -0.326874 0.000000 
-0.048844 0.240879 -0.716214 86 78 64 -0.439996 -0.897377 0.033434 0.000000 
-0.046331 0.238651 -0.717467 83 69 47 0.680499 0.724783 0.107758 0.000000 
-0.040907 0.229184 -0.741336 80 76 63 -0.146741 0.989098 -0.012322 0.000000 
-0.059848 0.266895 -0.604311 103 95 81 0.078385 -0.971728 0.222713 0.000000 
-0.058790 0.267878 -0.602413 106 93 83 -0.707879 0.686567 -0.165933 0.000000 
-0.052299 0.253443 -0.652427 108 100 86 -0.659689 0.727349 -0.189141 0.000000 
-0.048265 0.240577 -0.710718 87 83 69 -0.665205 -0.731575 0.149332 0.000000 
-0.049854 0.246896 -0.678160 99 89 73 0.115086 0.913753 -0.389628 0.000000 
-0.045411 0.236695 -0.727187 92 86 70 -0.797909 -0.601587 0.037862 0.000000 
-0.054643 0.254426 -0.654919 108 96 80 0.617494 0.783688 0.067337 0.000000 
-0.063819 0.277348 -0.571846 117 106 94 0.984144 -0.131299 0.119254 0.000000 
-0.068885 0.287348 -0.533023 112 108 101 -0.680786 0.483408 -0.550316 0.000000 
-0.061768 0.271922 -0.588074 109 99 95 0.615271 -0.684551 0.390936 0.000000 
-0.050246 0.253495 -0.663794 114 106 97 0.959702 -0.258431 0.110385 0.000000 
-0.048626 0.251551 -0.674890 111 104 89 0.964248 -0.176626 0.197560 0.000000 
-0.052047 0.254017 -0.653891 104 93 88 0.931451 -0.332563 0.147652 0.000000 
-0.063864 0.271345 -0.589537 96 84 67 0.447309 0.893267 0.044596 0.000000 
-0.063877 0.277137 -0.570804 113 95 85 0.961800 -0.201307 0.185518 0.000000 
-0.052641 0.248565 -0.675578 103 94 79 0.601025 0.797104 -0.058255 0.000000 
-0.046285 0.237360 -0.737031 78 73 61 -0.780563 -0.624729 0.020871 0.000000 
-0.068080 0.281668 -0.544699 83 72 60 0.666600 -0.695237 0.268867 0.000000 
-0.053009 0.254734 -0.647607 106 88 69 -0.540252 0.737304 -0.405599 0.000000 
-0.053666 0.260451 -0.633798 115 102 84 -0.958745 -0.023505 -0.283294 0.000000 
-0.049368 0.242295 -0.705576 88 82 66 -0.498391 -0.864895 0.059696 0.000000 
-0.050279 0.248316 -0.672319 108 93 76 0.339026 -0.940317 0.029425 0.000000 
-0.040439 0.231926 -0.733917 87 82 68 -0.605910 -0.780315 0.154860 0.000000 
-0.055553 0.260848 -0.628682 111 100 83 -0.946686 -0.155305 -0.282250 0.000000 
-0.068598 0.284374 -0.537965 96 84 71 0.756952 -0.628500 0.178916 0.000000 
-0.062037 0.272817 -0.585151 101 87 72 -0.639380 0.756175 -0.139256 0.000000 
-0.039573 0.225972 -0.750738 82 75 58 0.010721 -0.970853 0.239437 0.000000 
-0.068471 0.275264 -0.563834 85 76 60 0.736332 -0.611747 0.289102 0.000000 
-0.053362 0.255046 -0.647026 113 106 101 0.425640 -0.849732 0.311104 0.000000 
-0.038958 0.229158 -0.746543 73 69 58 0.359080 -0.905696 0.225334 0.000000 
-0.067169 0.285525 -0.539892 101 95 87 0.808647 -0.523978 0.267464 0.000000 
-0.060528 0.267901 -0.598096 112 103 97 -0.171538 0.898053 -0.405061 0.000000 
-0.046832 0.242418 -0.695170 104 94 77 0.362198 0.841992 -0.399828 0.000000 
-0.060740 0.272766 -0.594578 121 112 106 -0.957803 0.107867 -0.266417 0.000000 
-0.045805 0.234728 -0.742089 87 84 72 0.715152 0.658568 -0.234192 0.000000 
-0.060944 0.268047 -0.598011 90 75 60 0.084784 0.890929 -0.446159 0.000000 
-0.058809 0.264245 -0.613978 104 87 69 -0.354972 0.810227 -0.466398 0.000000 
-0.062438 0.269258 -0.597481 105 94 78 -0.561909 -0.735561 0.378429 0.000000 
-0.066096 0.274483 -0.579713 92 80 61 0.692288 0.715706 -0.092208 0.000000 
-0.057382 0.261703 -0.622455 111 102 87 0.011977 -0.994101 0.107794 0.000000 
-0.042106 0.230670 -0.739472 67 60 43 0.739574 0.662194 -0.120534 0.000000 
-0.069142 0.280592 -0.550275 87 74 54 -0.533225 -0.728025 0.430872 0.000000 
-0.056799 0.257606 -0.640928 100 86 66 0.819804 0.571210 -0.040501 0.000000 
-0.057162 0.263323 -0.616853 111 102 97 0.437167 -0.835162 0.333751 0.000000 
-0.066207 0.282919 -0.554513 120 99 71 0.939319 -0.217833 0.265007 0.000000 
-0.055184 0.257526 -0.638088 113 100 94 0.379620 -0.865287 0.327364 0.000000 
-0.058027 0.259472 -0.629880 103 93 76 -0.540416 -0.838283 0.072339 0.000000 
-0.053761 0.258418 -0.643215 115 104 99 0.873009 -0.082677 0.480645 0.000000 
-0.068141 0.281110 -0.549015 97 81 61 -0.450565 0.866701 -0.214056 0.000000 
-0.044679 0.236187 -0.710689 91 80 62 0.472230 -0.769621 0.429746 0.000000 
-0.045132 0.241570 -0.697394 91 80 62 0.470303 -0.790304 0.392728 0.000000 
-0.070583 0.285448 -0.533370 86 82 81 0.464696 -0.851688 0.242251 0.000000 
-0.047039 0.238197 -0.723151 98 88 71 -0.682033 -0.728175 0.067771 0.000000 
-0.051261 0.248582 -0.669893 99 89 74 -0.101515 -0.947916 0.301909 0.000000 
-0.043258 0.233869 -0.718156 76 69 55 0.976680 0.020077 0.213759 0.000000 
-0.044802 0.238133 -0.708445 89 79 64 0.032430 0.655659 -0.754360 0.000000 
-0.052376 0.252965 -0.651436 118 111 104 -0.543098 0.801420 -0.250541 0.000000 
-0.067619 0.281287 -0.550447 112 98 88 -0.849876 0.402409 -0.340261 0.000000 
-0.069017 0.280987 -0.546838 80 66 46 0.228961 0.934104 -0.273910 0.000000 
-0.069468 0.283610 -0.544654 86 64 41 -0.013990 -0.934819 0.354850 0.000000 
-0.052001 0.254906 -0.655856 111 99 91 -0.971721 -0.143911 -0.187212 0.000000 
-0.058986 0.262857 -0.618062 109 95 73 0.132718 0.931759 -0.337951 0.000000 
-0.067183 0.275427 -0.568654 127 124 120 0.330858 0.921575 -0.203059 0.000000 
-0.061749 0.266541 -0.604750 99 89 73 0.571089 0.813546 -0.109544 0.000000 
-0.051156 0.246832 -0.690092 87 70 56 0.642391 0.740984 -0.195644 0.000000 
-0.047266 0.248334 -0.680616 103 93 80 -0.909968 0.395578 -0.124404 0.000000 
-0.042156 0.230564 -0.736800 82 78 67 -0.060551 -0.949488 0.307907 0.000000 
-0.061109 0.266261 -0.611373 99 86 68 0.683080 0.726588 -0.073964 0.000000 
-0.055762 0.258120 -0.637437 104 92 79 0.109465 0.972602 0.205090 0.000000 
-0.052081 0.248419 -0.665848 109 99 83 -0.147730 -0.988305 -0.037792 0.000000 
-0.070355 0.283848 -0.536103 112 106 97 -0.281094 0.589187 -0.757526 0.000000 
-0.061422 0.272898 -0.586763 102 88 73 0.744843 -0.636895 0.198933 0.000000 
-0.068694 0.281473 -0.542115 82 76 61 0.229139 -0.945370 0.231883 0.000000 
-0.052897 0.256050 -0.644657 110 94 77 -0.636413 0.707304 -0.307734 0.000000 
-0.061767 0.270051 -0.593354 104 88 78 -0.146014 0.903021 -0.404020 0.000000 
-0.056411 0.258971 -0.632709 108 97 83 -0.170799 0.902794 -0.394703 0.000000 
-0.066357 0.275030 -0.581341 88 78 61 0.605075 0.787628 -0.116304 0.000000 
-0.062800 0.271066 -0.588393 115 113 106 -0.016788 0.923367 -0.383552 0.000000 
-0.060302 0.267291 -0.601982 102 93 87 -0.008449 -0.964394 0.264333 0.000000 
-0.061042 0.266433 -0.610821 103 91 71 -0.681493 -0.731664 0.015330 0.000000 
-0.067356 0.286943 -0.539688 118 108 101 -0.698348 0.663351 -0.268840 0.000000 
-0.054664 0.260720 -0.628603 102 87 70 0.877116 0.270230 0.397042 0.000000 
-0.068623 0.281052 -0.547133 94 81 59 0.158013 -0.983059 0.092878 0.000000 
-0.055365 0.257634 -0.634208 138 112 89 0.098152 -0.951418 0.291838 0.000000 
-0.066088 0.275600 -0.569878 96 79 67 0.073532 -0.953331 0.292836 0.000000 
-0.063764 0.277258 -0.571582 117 106 94 0.956894 -0.163243 0.240219 0.000000 
-0.062403 0.275451 -0.585373 108 99 91 0.923713 0.383066 0.003843 0.000000 
-0.043513 0.242769 -0.706718 106 100 86 0.034225 -0.980726 0.192369 0.000000 
-0.059949 0.263333 -0.621789 97 85 68 0.629635 0.772139 -0.085793 0.000000 
-0.067475 0.280493 -0.552578 112 96 85 0.697383 -0.605058 0.384138 0.000000 
-0.054829 0.260186 -0.635811 119 113 106 0.990050 0.125629 -0.063391 0.000000 
-0.062054 0.267921 -0.613898 112 103 89 -0.657713 -0.738986 0.145991 0.000000 
-0.060019 0.264014 -0.615574 92 79 66 0.607438 0.735657 -0.299712 0.000000 
-0.068628 0.277828 -0.569137 97 86 72 0.638314 0.768525 -0.043875 0.000000 
-0.061244 0.274501 -0.587940 120 109 101 0.996756 0.063992 0.048807 0.000000 
-0.053668 0.252645 -0.668561 92 90 83 -0.029586 -0.669217 0.742478 0.000000 
-0.067826 0.276893 -0.564457 116 111 107 0.159568 0.966491 -0.201082 0.000000 
-0.070034 0.281603 -0.546614 91 82 64 -0.852120 -0.408210 0.327500 0.000000 
-0.060669 0.270826 -0.593228 108 99 97 -0.572182 0.612691 -0.545177 0.000000 
-0.059446 0.267610 -0.599855 115 112 106 0.279231 -0.949921 0.140284 0.000000 
-0.054827 0.259048 -0.637894 116 109 105 0.906629 -0.304169 0.292414 0.000000 
-0.054265 0.255109 -0.647139 100 88 72 0.054685 -0.955088 0.291232 0.000000 
-0.042920 0.238124 -0.715944 99 95 87 -0.829619 0.557248 0.034741 0.000000 
-0.064572 0.276173 -0.569453 108 95 89 -0.666457 0.713280 -0.216950 0.000000 
-0.051529 0.247132 -0.681590 96 88 74 -0.642920 -0.765647 0.020919 0.000000 
-0.046331 0.238651 -0.717467 83 69 47 -0.680499 -0.724783 -0.107758 0.000000 
-0.051389 0.247588 -0.684866 96 83 68 -0.810228 -0.580783 0.078872 0.000000 
-0.064413 0.275428 -0.571148 101 84 68 -0.554866 0.758694 -0.341331 0.000000 
-0.053631 0.250871 -0.660562 114 104 97 -0.336991 -0.835424 0.434170 0.000000 
-0.062134 0.267511 -0.611073 103 92 76 -0.739614 -0.670946 -0.052932 0.000000 
-0.054599 0.256947 -0.640832 101 89 74 -0.286807 0.944696 -0.159035 0.000000 
-0.050034 0.249384 -0.669375 97 85 69 -0.692821 0.686566 -0.220514 0.000000 
-0.060361 0.262436 -0.627720 101 94 79 -0.632413 -0.746835 0.205650 0.000000 
-0.062237 0.272507 -0.585810 102 90 75 0.404790 -0.892875 0.197280 0.000000 
-0.056353 0.257687 -0.635827 118 112 111 -0.156659 -0.984200 0.082515 0.000000 
-0.057634 0.262896 -0.617204 110 100 91 0.122665 -0.964538 0.233710 0.000000 
-0.067978 0.286750 -0.534006 130 119 105 -0.530887 0.764672 -0.365289 0.000000 
-0.070404 0.283532 -0.539186 87 73 54 -0.282985 -0.899328 0.333359 0.000000 
-0.045397 0.244995 -0.687806 108 93 75 -0.730063 0.538895 -0.420239 0.000000 
-0.058308 0.264233 -0.614368 105 97 92 0.538846 -0.778688 0.321389 0.000000 
-0.065516 0.276626 -0.567104 103 88 72 -0.369752 0.823611 -0.430055 0.000000 
-0.050700 0.247671 -0.675166 99 89 79 0.025643 0.965897 -0.257654 0.000000 
-0.044020 0.240295 -0.705371 97 89 74 0.763086 -0.622958 0.172113 0.000000 
-0.058194 0.258467 -0.645319 107 99 86 0.883845 0.467762 0.003975 0.000000 
-0.064586 0.279315 -0.563531 116 96 83 0.745022 -0.521351 0.416094 0.000000 
-0.040268 0.230819 -0.734093 92 88 78 0.531480 0.826579 -0.185190 0.000000 
-0.046031 0.233746 -0.711526 85 80 65 -0.952786 0.295248 -0.070911 0.000000 
-0.063556 0.271710 -0.589177 102 87 69 0.329713 0.942592 -0.053013 0.000000 
-0.045793 0.237448 -0.729690 85 72 53 -0.750982 -0.655112 0.082797 0.000000 
-0.058467 0.260186 -0.630401 98 85 69 -0.727015 -0.683826 -0.061904 0.000000 
-0.046923 0.237334 -0.732236 90 88 75 -0.656275 -0.751471 0.067791 0.000000 
-0.063362 0.277153 -0.562516 127 107 87 0.653517 -0.660101 0.370381 0.000000 
-0.045117 0.235966 -0.725616 89 85 70 0.820622 0.562090 -0.103122 0.000000 
-0.066125 0.282900 -0.553780 123 103 89 -0.921295 0.310919 -0.233548 0.000000 
-0.056374 0.257357 -0.640256 95 78 66 -0.466610 -0.882292 0.061939 0.000000 
-0.057294 0.264377 -0.615093 123 116 108 0.615667 -0.531329 0.581932 0.000000 
-0.065826 0.277793 -0.563309 122 112 100 0.539140 -0.692704 0.479050 0.000000 
-0.068133 0.285867 -0.535993 104 94 86 0.898727 -0.376791 0.224315 0.000000 
-0.067461 0.280444 -0.552524 123 115 104 0.700670 -0.629140 0.336517 0.000000 
-0.043033 0.240625 -0.709629 101 94 79 0.781702 -0.514150 0.352975 0.000000 
-0.045579 0.236095 -0.712039 89 79 61 0.805563 -0.592041 0.023571 0.000000 
-0.070958 0.283641 -0.537548 74 66 53 0.225084 -0.957606 0.179801 0.000000 
-0.066960 0.277420 -0.563246 111 96 79 0.353293 -0.862405 0.362549 0.000000 
-0.065859 0.283630 -0.553860 133 107 81 -0.966141 0.217994 -0.138020 0.000000 
-0.042991 0.233965 -0.733503 64 54 38 0.720800 0.693130 -0.004150 0.000000 
-0.068739 0.283820 -0.543217 104 95 89 -0.563316 0.824605 -0.051977 0.000000 
-0.061200 0.265253 -0.611465 116 112 110 -0.643406 -0.761966 0.073739 0.000000 
-0.067854 0.278540 -0.556339 115 104 86 -0.267904 0.939746 -0.212380 0.000000 
-0.048384 0.240289 -0.720554 96 91 78 -0.559927 -0.821711 0.106168 0.000000 
-0.070414 0.283692 -0.538369 82 70 57 -0.124705 -0.992120 0.012139 0.000000 
-0.041681 0.235398 -0.723417 94 82 65 0.705763 -0.562950 0.430100 0.000000 
-0.062586 0.276565 -0.579234 116 106 96 0.995443 -0.069604 0.065184 0.000000 
-0.051861 0.248896 -0.683494 91 80 67 -0.831600 -0.552047 0.060711 0.000000 
-0.065088 0.271253 -0.586277 116 115 109 -0.307953 0.897080 -0.316879 0.000000 
-0.065452 0.274592 -0.574619 97 80 64 -0.309020 -0.872257 0.379044 0.000000 
-0.065577 0.274810 -0.578814 93 78 61 -0.653637 -0.743794 0.139743 0.000000 
-0.065096 0.273297 -0.583562 87 76 59 0.533271 0.843996 0.057386 0.000000 
-0.055309 0.260137 -0.631112 114 106 102 0.744497 -0.663542 0.073727 0.000000 
-0.046748 0.239408 -0.720900 97 84 66 0.731054 0.650343 -0.206433 0.000000 
-0.062182 0.274635 -0.582366 111 99 92 -0.977162 0.175070 -0.120438 0.000000 
-0.052898 0.250618 -0.660939 107 94 77 -0.261370 -0.941763 0.211585 0.000000 
-0.069515 0.282252 -0.546311 102 84 63 -0.680084 -0.630683 0.373799 0.000000 
-0.061139 0.273618 -0.586991 113 101 93 0.908148 -0.329039 0.258844 0.000000 
-0.068284 0.284822 -0.539639 102 94 88 0.787370 -0.581702 0.204133 0.000000 
-0.045263 0.239329 -0.703597 99 90 74 -0.116172 0.928009 -0.353983 0.000000 
-0.043587 0.234662 -0.733230 70 62 46 -0.759481 -0.649575 0.035226 0.000000 
-0.044202 0.232856 -0.747070 83 75 58 -0.734106 -0.668852 0.117160 0.000000 
-0.058502 0.263125 -0.616084 100 88 71 -0.068407 -0.951251 0.300735 0.000000 
-0.048926 0.245653 -0.681403 113 103 96 0.350120 -0.892434 0.284566 0.000000 
-0.047391 0.241387 -0.705636 89 73 54 -0.620025 -0.781145 0.073367 0.000000 
-0.055942 0.257988 -0.636376 111 97 79 -0.132140 -0.988130 -0.078349 0.000000 
-0.061592 0.269054 -0.596873 102 86 71 -0.166262 -0.860738 0.481131 0.000000 
-0.061132 0.270896 -0.592532 109 99 97 0.658053 -0.614738 0.434815 0.000000 
-0.070416 0.287251 -0.531048 101 91 73 0.791487 -0.435399 0.428924 0.000000 
-0.067041 0.285404 -0.543832 105 101 92 0.777910 -0.555196 0.294301 0.000000 
-0.052604 0.249709 -0.669868 102 94 79 0.510613 0.845101 -0.158364 0.000000 
-0.059886 0.266252 -0.605594 108 102 98 0.091446 0.942296 -0.322050 0.000000 
-0.069177 0.282583 -0.543418 93 82 73 -0.199492 -0.681984 0.703634 0.000000 
-0.049649 0.244557 -0.694549 104 94 79 0.430910 0.883730 -0.182589 0.000000 
-0.046825 0.239375 -0.718284 90 78 59 0.619048 0.784689 0.032286 0.000000 
-0.070377 0.285879 -0.532539 103 97 95 0.003679 -0.955321 0.295548 0.000000 
-0.055838 0.258093 -0.635605 112 103 89 0.134593 0.979192 -0.151880 0.000000 
-0.069651 0.281328 -0.547707 112 97 75 0.636623 0.761276 -0.123169 0.000000 
-0.067360 0.280183 -0.555216 109 91 71 -0.705858 0.696904 -0.126845 0.000000 
-0.064594 0.281171 -0.563985 114 99 86 0.983781 -0.048190 0.172779 0.000000 
-0.067220 0.277351 -0.566534 102 83 71 -0.459331 -0.888217 0.009266 0.000000 
-0.056894 0.265910 -0.613664 118 107 91 0.938551 0.244051 0.244051 0.000000 
-0.065149 0.276736 -0.566519 102 86 71 0.546786 -0.789452 0.278908 0.000000 
-0.064007 0.281342 -0.557783 125 97 72 -0.864160 0.432839 -0.256666 0.000000 
-0.040290 0.230529 -0.738410 88 83 70 0.528695 -0.705483 0.471990 0.000000 
-0.063506 0.273959 -0.578826 114 105 98 0.170415 -0.979582 0.106663 0.000000 
-0.069379 0.287169 -0.531542 97 89 82 0.829817 -0.288023 0.477962 0.000000 
-0.054586 0.255417 -0.645849 98 87 72 -0.030543 -0.966370 0.255337 0.000000 
-0.052811 0.252946 -0.652658 104 96 83 0.186818 -0.972214 0.141066 0.000000 
-0.069854 0.280997 -0.548652 93 79 62 -0.881541 -0.472016 0.009307 0.000000 
-0.043668 0.234026 -0.735725 78 73 59 -0.731926 -0.672780 0.107941 0.000000 
-0.042930 0.232462 -0.741739 63 52 34 0.691039 0.700233 -0.179272 0.000000 
-0.066135 0.284708 -0.546789 87 74 59 0.839965 -0.539877 0.054689 0.000000 
-0.048443 0.245950 -0.679986 116 101 84 -0.574450 0.800612 -0.170375 0.000000 
-0.041631 0.229482 -0.740516 73 68 54 0.478601 0.877659 0.025615 0.000000 
-0.047391 0.241387 -0.705636 89 73 54 -0.620025 -0.781145 0.073367 0.000000 
-0.049562 0.244347 -0.694562 99 87 71 -0.453556 -0.873352 0.177606 0.000000 
-0.054914 0.257913 -0.634898 113 105 101 -0.387195 0.910965 -0.142206 0.000000 
-0.051116 0.248880 -0.668697 105 89 74 -0.319922 0.922796 -0.214703 0.000000 
-0.068477 0.278323 -0.562916 105 92 75 0.445911 0.884653 -0.136211 0.000000 
-0.068303 0.279056 -0.561781 121 107 96 0.218282 0.974342 -0.054875 0.000000 
-0.057065 0.261601 -0.621526 117 106 88 -0.305530 0.941032 -0.145296 0.000000 
-0.069176 0.281540 -0.545740 109 91 67 0.690827 0.632033 -0.351130 0.000000 
-0.052156 0.256044 -0.652773 117 106 99 0.997199 0.074606 -0.005254 0.000000 
-0.054985 0.257236 -0.638907 107 96 79 0.278943 -0.849158 0.448466 0.000000 
-0.058873 0.266233 -0.608819 107 98 94 0.802774 -0.540898 0.250964 0.000000 
-0.057317 0.262462 -0.618934 113 96 79 -0.295196 0.944896 -0.141532 0.000000 
-0.059915 0.262929 -0.622019 92 80 69 -0.562090 -0.820622 0.103122 0.000000 
-0.054962 0.256708 -0.640986 110 101 98 0.118946 0.988078 -0.097748 0.000000 
-0.054612 0.255460 -0.648365 97 85 74 -0.365239 -0.930519 0.027103 0.000000 
-0.046933 0.242994 -0.693307 100 87 70 0.236047 0.922730 -0.304715 0.000000 
-0.062575 0.268095 -0.599245 118 113 110 -0.444399 -0.895470 0.025356 0.000000 
-0.067496 0.280630 -0.560171 117 107 96 -0.732750 0.517722 -0.441635 0.000000 
-0.058206 0.261369 -0.626519 95 75 58 0.691925 0.704091 -0.159675 0.000000 
-0.058847 0.263915 -0.615812 104 88 67 0.326981 0.864275 -0.382246 0.000000 
-0.063956 0.277238 -0.569391 108 93 79 0.934009 -0.314104 0.170197 0.000000 
-0.066287 0.280218 -0.558418 121 101 90 0.716723 -0.680357 0.153042 0.000000 
-0.059287 0.260844 -0.632017 109 100 88 0.659251 0.751630 0.020995 0.000000 
-0.061817 0.265730 -0.617006 93 83 70 0.998306 0.055403 -0.017771 0.000000 
-0.059360 0.265936 -0.607025 111 95 77 -0.054234 0.924627 -0.376994 0.000000 
-0.060485 0.270002 -0.594565 99 88 80 0.428144 -0.835901 0.343456 0.000000 
-0.054454 0.259725 -0.632554 124 103 82 -0.830983 0.348477 -0.433625 0.000000 
-0.062629 0.276713 -0.579644 118 107 100 -0.993514 0.050404 -0.101928 0.000000 
-0.043048 0.233521 -0.728285 72 63 45 -0.413217 -0.910632 0.001295 0.000000 
-0.067557 0.282651 -0.542667 91 81 70 0.879031 -0.344629 0.329447 0.000000 
-0.051468 0.247602 -0.683856 93 84 69 0.807057 0.577729 -0.122014 0.000000 
-0.068308 0.283223 -0.540787 80 68 57 -0.755887 0.647274 -0.098339 0.000000 
-0.059469 0.263368 -0.616167 95 81 68 0.516349 0.812743 -0.269874 0.000000 
-0.067560 0.278731 -0.556581 107 89 79 -0.704945 0.660589 -0.258216 0.000000 
-0.054406 0.252710 -0.657861 103 93 79 -0.699365 -0.690143 0.185985 0.000000 
-0.057996 0.265666 -0.613506 108 97 89 0.950603 -0.084759 0.298612 0.000000 
-0.055784 0.259196 -0.632667 104 92 78 0.364878 -0.811017 0.457292 0.000000 
-0.052002 0.251515 -0.658865 95 83 68 0.007719 -0.991323 0.131221 0.000000 
-0.057174 0.263249 -0.617854 117 111 106 0.445815 -0.887384 0.117469 0.000000 
-0.061737 0.271632 -0.589956 110 100 96 0.702588 -0.708359 0.067806 0.000000 
-0.067434 0.280046 -0.554613 103 84 65 -0.524911 0.848583 0.066142 0.000000 
-0.062911 0.272078 -0.586721 111 96 79 -0.134410 0.938157 -0.319055 0.000000 
-0.067971 0.279261 -0.551842 128 107 82 -0.391869 0.870650 -0.297332 0.000000 
-0.056817 0.256931 -0.641018 101 94 91 -0.433169 -0.900074 -0.047230 0.000000 
-0.065503 0.273665 -0.584266 112 102 88 0.623450 0.781071 0.035183 0.000000 
-0.045673 0.236182 -0.739751 82 77 64 -0.793051 -0.600265 0.103695 0.000000 
-0.044243 0.234835 -0.736552 78 71 54 -0.665973 -0.724150 0.179124 0.000000 
-0.054630 0.256836 -0.641268 103 93 78 -0.267904 0.939746 -0.212380 0.000000 
-0.067121 0.282467 -0.546452 117 107 93 -0.711604 0.700104 -0.058941 0.000000 
-0.069359 0.289352 -0.532705 121 112 97 -0.702007 0.501910 -0.505245 0.000000 
-0.050645 0.248832 -0.669423 108 99 84 -0.408234 0.863867 -0.295091 0.000000 
-0.056996 0.264471 -0.615237 118 110 94 -0.760451 0.423563 -0.492249 0.000000 
-0.044935 0.236107 -0.715360 92 78 58 -0.446723 -0.868047 0.216638 0.000000 
-0.069893 0.280527 -0.550991 94 81 62 0.571982 0.820071 -0.017918 0.000000 
-0.044121 0.237783 -0.710011 96 86 72 -0.602955 0.565798 -0.562421 0.000000 
-0.067170 0.277633 -0.567212 111 99 89 0.428336 0.901545 -0.061191 0.000000 
-0.051098 0.248983 -0.664370 99 89 72 -0.465206 0.849572 -0.248618 0.000000 
-0.063761 0.274997 -0.584767 113 104 92 -0.232917 0.815982 0.529077 0.000000 
-0.042473 0.233923 -0.724293 83 75 58 0.206260 -0.808235 0.551555 0.000000 
-0.062771 0.276781 -0.574288 118 104 95 0.884370 -0.338983 0.320904 0.000000 
-0.043659 0.234907 -0.721900 81 72 53 0.492923 0.867154 -0.071216 0.000000 
-0.040679 0.229401 -0.740078 66 62 48 -0.282513 0.949298 -0.137909 0.000000 
-0.071117 0.281486 -0.543406 110 112 109 -0.363837 0.926499 -0.096031 0.000000 
-0.040957 0.232440 -0.730761 68 62 48 0.326553 0.916363 -0.231608 0.000000 
-0.056749 0.261580 -0.621080 118 102 88 0.315849 -0.881052 0.352118 0.000000 
-0.053939 0.252011 -0.656065 116 114 112 -0.426522 -0.891819 0.150791 0.000000 
-0.064819 0.278606 -0.563750 113 98 82 -0.705110 0.569065 -0.423066 0.000000 
-0.045654 0.243316 -0.690230 117 106 88 0.631213 -0.767212 0.113825 0.000000 
-0.049418 0.246444 -0.678718 96 86 71 0.073657 0.952369 -0.295919 0.000000 
