ply
format ascii 1.0
comment Created by Open3D
obj_info Generated by CloudCompare!
element vertex 619
property float x
property float y
property float z
property uchar red
property uchar green
property uchar blue
property float nx
property float ny
property float nz
property float scalar_stem3
end_header
-0.097288 0.214607 -0.514003 66 67 59 0.805281 -0.476790 0.352410 0.000000 
-0.071001 0.199869 -0.622677 94 97 88 -0.950989 0.115071 -0.287016 0.000000 
-0.103325 0.216929 -0.500255 52 51 40 -0.357109 -0.932669 0.051016 0.000000 
-0.089299 0.214813 -0.549916 45 46 39 -0.584887 0.678202 -0.444914 0.000000 
-0.083461 0.202386 -0.587019 82 75 56 0.030508 -0.967722 0.250168 0.000000 
-0.084026 0.201501 -0.589046 112 116 114 -0.143219 -0.988783 0.042393 0.000000 
-0.086193 0.203849 -0.577025 61 58 44 0.436861 0.886698 0.151388 0.000000 
-0.057148 0.182319 -0.707243 68 72 61 0.497323 0.865091 -0.065474 0.000000 
-0.111739 0.228418 -0.455438 118 106 73 0.901764 0.342759 0.263321 0.000000 
-0.096453 0.213598 -0.518529 73 76 72 -0.145995 0.949639 -0.277257 0.000000 
-0.085441 0.210845 -0.556776 81 77 61 0.627971 -0.365633 0.686997 0.000000 
-0.089146 0.209118 -0.550010 44 46 40 0.989561 0.035220 0.139743 0.000000 
-0.053682 0.185493 -0.693917 100 97 83 -0.912014 -0.345438 -0.221138 0.000000 
-0.102298 0.216363 -0.505595 51 55 47 -0.655314 -0.754389 0.038215 0.000000 
-0.084541 0.207901 -0.562469 104 95 74 -0.911002 0.284233 -0.298809 0.000000 
-0.097063 0.216613 -0.512598 56 55 45 0.991372 -0.025706 0.128532 0.000000 
-0.109219 0.227384 -0.466817 100 92 70 -0.491380 -0.798692 -0.347327 0.000000 
-0.090263 0.211727 -0.546648 70 76 68 0.951611 0.234180 0.198986 0.000000 
-0.100519 0.218558 -0.500247 53 54 46 -0.912195 0.148038 -0.382079 0.000000 
-0.056954 0.182105 -0.712102 79 76 62 0.622475 0.782580 0.009661 0.000000 
-0.071438 0.199175 -0.619906 87 87 73 0.943667 -0.187638 0.272554 0.000000 
-0.082137 0.206964 -0.563221 122 116 99 -0.151955 -0.987128 0.049878 0.000000 
-0.071206 0.199142 -0.622081 88 88 75 0.966413 -0.175122 0.188094 0.000000 
-0.109021 0.220322 -0.482358 107 103 83 0.884661 0.438711 0.157820 0.000000 
-0.082946 0.201718 -0.589598 76 71 55 -0.069626 -0.975980 0.206434 0.000000 
-0.078462 0.204084 -0.588443 97 94 73 0.975752 -0.185679 0.115894 0.000000 
-0.082940 0.201140 -0.595426 94 92 78 0.734307 0.678782 -0.006941 0.000000 
-0.073652 0.201825 -0.596759 115 113 105 0.308706 0.931707 -0.191370 0.000000 
-0.096545 0.212947 -0.524022 40 37 27 0.213962 0.958178 -0.190041 0.000000 
-0.091143 0.213809 -0.546203 55 54 38 0.940812 0.154299 0.301770 0.000000 
-0.112930 0.221936 -0.469166 120 123 118 -0.429268 -0.877846 -0.212406 0.000000 
-0.111942 0.228998 -0.467649 117 110 92 0.443190 -0.876074 0.189939 0.000000 
-0.060103 0.186497 -0.671178 88 92 81 0.914696 -0.379606 0.138675 0.000000 
-0.086262 0.204239 -0.578211 45 41 28 0.589878 0.782930 0.197648 0.000000 
-0.074315 0.200653 -0.603541 113 108 91 -0.979989 0.168033 0.106707 0.000000 
-0.071354 0.201013 -0.619846 93 97 92 -0.984892 -0.045564 -0.167069 0.000000 
-0.116071 0.236027 -0.450137 102 100 81 0.947653 -0.217427 0.233836 0.000000 
-0.061451 0.193543 -0.669322 107 113 111 0.983952 0.092508 0.152579 0.000000 
-0.075646 0.196951 -0.613252 86 82 64 0.016117 -0.953403 0.301270 0.000000 
-0.092274 0.212445 -0.538001 67 70 61 0.958206 0.285867 -0.011042 0.000000 
-0.085003 0.204840 -0.564632 97 100 97 -0.526215 0.846766 -0.078010 0.000000 
-0.086813 0.211960 -0.570600 143 132 115 0.002950 -0.999991 0.002950 0.000000 
-0.113755 0.225703 -0.453276 111 103 80 -0.091954 0.985223 -0.144499 0.000000 
-0.116446 0.224028 -0.454265 111 101 80 0.876523 0.001326 0.481358 0.000000 
-0.083231 0.204259 -0.572539 104 104 93 -0.708110 0.464853 -0.531499 0.000000 
-0.105219 0.223828 -0.480039 67 66 45 -0.944975 -0.324394 -0.042312 0.000000 
-0.114358 0.233187 -0.450174 101 93 71 0.488658 0.811267 0.321028 0.000000 
-0.102691 0.218463 -0.490992 62 62 53 -0.828481 0.522534 -0.201440 0.000000 
-0.081219 0.204365 -0.577787 100 95 74 -0.878077 0.379342 -0.291685 0.000000 
-0.070928 0.193544 -0.644386 72 75 66 0.789409 0.605554 0.100683 0.000000 
-0.078199 0.198803 -0.600286 90 85 67 -0.363883 0.916079 -0.168491 0.000000 
-0.083998 0.201674 -0.581985 71 61 42 -0.193273 -0.978520 -0.071718 0.000000 
-0.106025 0.224564 -0.477972 76 75 56 0.851975 0.523567 0.004038 0.000000 
-0.092654 0.213833 -0.536514 69 68 54 0.971852 0.235565 -0.003551 0.000000 
-0.112406 0.225643 -0.466049 66 55 26 0.692881 -0.555975 0.459138 0.000000 
-0.112353 0.232400 -0.449705 82 72 45 0.690550 0.684258 -0.234378 0.000000 
-0.085189 0.204043 -0.572869 48 44 27 -0.561857 -0.808894 -0.173227 0.000000 
-0.073063 0.200583 -0.611114 99 99 85 0.989539 -0.143913 -0.010040 0.000000 
-0.083909 0.206818 -0.569922 96 94 78 -0.877700 0.148934 -0.455479 0.000000 
-0.107301 0.216916 -0.486167 96 97 87 -0.643213 -0.639889 0.420498 0.000000 
-0.116553 0.229238 -0.453473 64 54 22 -0.993168 -0.084741 0.080222 0.000000 
-0.070659 0.194159 -0.630324 82 86 77 0.979731 -0.197364 0.034273 0.000000 
-0.094228 0.222308 -0.534271 92 89 74 0.911044 0.157272 0.381136 0.000000 
-0.104443 0.221878 -0.482735 73 76 62 0.995424 -0.060629 0.073858 0.000000 
-0.054680 0.187586 -0.703159 94 96 88 -0.973568 -0.175977 -0.145592 0.000000 
-0.104316 0.220477 -0.496579 38 40 35 0.706421 -0.658797 0.258757 0.000000 
-0.101832 0.218830 -0.494096 40 40 30 0.964622 -0.013347 0.263299 0.000000 
-0.117609 0.225115 -0.454683 122 123 116 -0.805847 0.480317 -0.346275 0.000000 
-0.108698 0.226889 -0.463087 82 79 63 -0.810166 0.331359 -0.483563 0.000000 
-0.111476 0.230345 -0.458270 81 72 48 0.920727 0.384641 -0.065670 0.000000 
-0.105963 0.220287 -0.493152 46 46 35 0.791786 -0.550330 0.264974 0.000000 
-0.108060 0.218869 -0.486518 105 101 84 -0.766228 -0.608974 -0.205047 0.000000 
-0.081725 0.202599 -0.587674 85 77 57 0.028707 0.954817 -0.295806 0.000000 
-0.081643 0.201237 -0.591431 82 78 62 0.066159 0.996719 0.046636 0.000000 
-0.105907 0.219614 -0.495289 50 52 43 0.885904 -0.376247 0.271317 0.000000 
-0.072198 0.202745 -0.615450 108 107 94 0.901935 0.332136 0.276042 0.000000 
-0.070680 0.195156 -0.627876 57 55 40 -0.850303 0.419730 -0.317508 0.000000 
-0.091540 0.220184 -0.544411 77 78 71 -0.961573 -0.247855 -0.118088 0.000000 
-0.079835 0.201374 -0.591509 86 83 66 -0.255959 -0.965718 0.043278 0.000000 
-0.101999 0.218594 -0.506625 47 47 39 0.796604 -0.455432 0.397497 0.000000 
-0.081254 0.203647 -0.579099 83 84 72 -0.767988 0.592805 -0.242440 0.000000 
-0.082528 0.204590 -0.573648 81 79 63 -0.901606 0.399917 -0.164841 0.000000 
-0.068179 0.193384 -0.641058 68 69 57 -0.982869 0.005721 -0.184216 0.000000 
-0.064878 0.189739 -0.650434 96 93 76 -0.619463 0.202368 -0.758494 0.000000 
-0.114205 0.233812 -0.447998 112 109 96 -0.324534 0.117155 -0.938591 0.000000 
-0.113694 0.232954 -0.448717 87 77 50 -0.048692 -0.850027 -0.524484 0.000000 
-0.105988 0.217723 -0.487848 78 76 63 0.318790 0.946044 -0.058079 0.000000 
-0.113457 0.225023 -0.454981 109 101 76 -0.236303 -0.884279 0.402756 0.000000 
-0.084916 0.205196 -0.561942 115 117 112 0.787039 -0.593678 0.167680 0.000000 
-0.081994 0.210876 -0.562884 112 104 88 -0.848345 -0.528319 0.034486 0.000000 
-0.111530 0.231152 -0.455071 107 101 83 -0.890660 -0.410961 -0.194512 0.000000 
-0.050436 0.178090 -0.727652 63 67 51 0.153097 -0.827914 0.539556 0.000000 
-0.115514 0.234066 -0.453531 94 89 73 0.307662 0.896232 -0.319552 0.000000 
-0.103416 0.219668 -0.488653 55 60 50 0.878012 -0.371525 0.301769 0.000000 
-0.083405 0.202316 -0.585967 93 91 79 0.085401 0.994863 -0.054346 0.000000 
-0.068414 0.195998 -0.636501 84 87 76 0.875024 -0.423302 0.234836 0.000000 
-0.107453 0.225877 -0.476168 99 93 72 0.542989 0.825642 -0.153227 0.000000 
-0.055628 0.183199 -0.689840 72 76 68 -0.602597 0.762246 -0.236343 0.000000 
-0.116212 0.228099 -0.454512 87 75 47 -0.969856 0.240329 -0.040258 0.000000 
-0.100296 0.213099 -0.508333 97 99 95 0.394536 -0.880581 0.262524 0.000000 
-0.081198 0.200007 -0.604011 101 99 85 0.726882 0.683701 -0.064772 0.000000 
-0.084848 0.210281 -0.559763 73 70 53 0.556964 -0.789163 0.258870 0.000000 
-0.107003 0.220840 -0.480461 91 85 65 -0.059507 0.929631 -0.363654 0.000000 
-0.102977 0.215620 -0.499754 102 106 104 -0.871894 -0.485313 -0.065357 0.000000 
-0.102964 0.220671 -0.498344 49 51 47 -0.198278 0.962500 -0.185147 0.000000 
-0.101188 0.217652 -0.499371 31 29 21 -0.891190 0.378126 -0.250601 0.000000 
-0.079907 0.201679 -0.583218 123 109 87 -0.457179 0.878303 -0.139894 0.000000 
-0.112727 0.224189 -0.456454 100 89 66 -0.470158 -0.854146 0.222229 0.000000 
-0.058318 0.184799 -0.680233 76 75 63 0.375356 -0.868681 0.323266 0.000000 
-0.108445 0.223036 -0.477950 64 58 37 -0.641730 -0.718165 0.269113 0.000000 
-0.111800 0.225674 -0.468892 92 82 55 -0.660879 -0.146026 0.736149 0.000000 
-0.114561 0.232709 -0.450881 92 85 59 -0.258801 -0.963246 -0.071959 0.000000 
-0.069022 0.191562 -0.638135 87 91 86 0.347397 -0.904405 0.247722 0.000000 
-0.091954 0.211962 -0.538846 69 69 57 -0.937703 -0.336509 -0.086455 0.000000 
-0.111985 0.227726 -0.468707 94 87 67 -0.956815 0.275780 -0.091927 0.000000 
-0.083854 0.202018 -0.580744 78 69 48 0.361118 0.873083 -0.327597 0.000000 
-0.091316 0.218814 -0.543302 108 105 92 -0.977618 -0.205120 0.046782 0.000000 
-0.103363 0.217234 -0.502218 42 40 29 0.766899 0.636425 0.082634 0.000000 
-0.076660 0.198137 -0.618916 89 85 69 -0.874047 -0.449552 -0.184243 0.000000 
-0.118832 0.224041 -0.456102 96 85 60 -0.751679 -0.658250 0.041052 0.000000 
-0.110362 0.222117 -0.463454 127 122 102 0.745647 -0.638028 0.192177 0.000000 
-0.081711 0.203371 -0.578630 97 101 93 -0.697228 0.675194 -0.240803 0.000000 
-0.111406 0.231145 -0.449178 90 80 53 0.729606 -0.098357 0.676757 0.000000 
-0.078294 0.198713 -0.600649 90 85 67 -0.539823 0.841689 0.012238 0.000000 
-0.086610 0.206535 -0.560661 58 53 39 -0.729816 -0.614329 0.299947 0.000000 
-0.111361 0.223227 -0.473216 51 45 26 0.872386 -0.003996 0.488802 0.000000 
-0.111115 0.232257 -0.449979 86 80 56 0.675591 0.735580 -0.049991 0.000000 
-0.073051 0.194918 -0.639429 81 77 63 -0.779760 -0.620625 0.082461 0.000000 
-0.063620 0.188094 -0.658300 94 97 92 -0.334759 0.901048 -0.275771 0.000000 
-0.100372 0.214572 -0.516395 96 101 97 0.916747 -0.304620 0.258422 0.000000 
-0.107807 0.226495 -0.471448 99 92 67 0.844446 0.535135 0.023267 0.000000 
-0.111147 0.230043 -0.451461 102 98 76 -0.746570 -0.092043 0.658910 0.000000 
-0.110961 0.227892 -0.456270 108 100 70 0.904955 0.423738 0.038765 0.000000 
-0.106446 0.222220 -0.475172 116 113 95 -0.603665 0.536028 -0.590138 0.000000 
-0.115504 0.223695 -0.462402 110 101 80 0.901809 -0.041539 0.430135 0.000000 
-0.087994 0.207052 -0.573873 94 85 64 0.915688 0.183707 0.357446 0.000000 
-0.107487 0.218544 -0.485509 111 109 96 0.457354 0.865547 0.204096 0.000000 
-0.106529 0.216070 -0.482358 81 75 58 -0.672554 -0.585773 0.452263 0.000000 
-0.105142 0.223665 -0.481556 53 54 34 -0.971848 -0.218323 -0.088577 0.000000 
-0.070641 0.197847 -0.627074 81 83 72 0.932567 -0.188186 0.308068 0.000000 
-0.065168 0.188022 -0.655683 112 119 118 -0.619468 -0.784473 0.029365 0.000000 
-0.054089 0.181039 -0.702064 65 62 49 -0.306312 -0.940720 -0.145669 0.000000 
-0.109843 0.221691 -0.472774 55 51 34 0.168211 0.969458 0.178483 0.000000 
-0.083815 0.205124 -0.564179 107 105 96 -0.843289 0.345764 -0.411475 0.000000 
-0.091896 0.218489 -0.548020 97 94 81 -0.517005 -0.845076 0.136208 0.000000 
-0.108166 0.225433 -0.466839 124 116 91 -0.991923 -0.007706 -0.126605 0.000000 
-0.107226 0.224752 -0.471973 126 121 96 0.982570 0.122669 0.139673 0.000000 
-0.106629 0.220352 -0.482433 100 100 88 0.572306 -0.548671 0.609447 0.000000 
-0.105537 0.223801 -0.484437 68 70 54 0.089938 0.930253 -0.355725 0.000000 
-0.112037 0.223318 -0.472520 58 49 24 -0.969630 0.018023 -0.243910 0.000000 
-0.054967 0.183647 -0.692630 69 73 62 -0.907499 0.372491 -0.194156 0.000000 
-0.109468 0.221647 -0.481291 115 106 84 -0.760077 0.416816 -0.498545 0.000000 
-0.104246 0.218136 -0.489073 50 50 40 -0.198436 0.957551 -0.209090 0.000000 
-0.085185 0.209584 -0.557453 84 79 65 0.718873 -0.550310 0.424713 0.000000 
-0.069932 0.191177 -0.645510 97 97 91 0.799385 0.593373 0.094301 0.000000 
-0.085822 0.211451 -0.556546 78 74 60 0.482871 -0.427218 0.764409 0.000000 
-0.105432 0.218708 -0.496812 49 49 40 -0.860765 -0.444805 -0.247451 0.000000 
-0.050410 0.180021 -0.717462 55 59 47 0.058213 0.982485 -0.177014 0.000000 
-0.089204 0.209851 -0.552539 68 67 54 -0.981518 -0.184406 -0.051158 0.000000 
-0.101925 0.219176 -0.494502 32 30 22 -0.974473 -0.077613 -0.210664 0.000000 
-0.074577 0.195334 -0.619835 90 87 73 0.288298 0.932399 -0.217982 0.000000 
-0.081471 0.208076 -0.575714 107 105 86 -0.954093 -0.164591 -0.250232 0.000000 
-0.077709 0.205790 -0.595451 101 104 98 0.895178 0.444234 0.036237 0.000000 
-0.092421 0.214531 -0.535246 71 72 60 0.890725 0.428867 0.150606 0.000000 
-0.085510 0.204171 -0.572965 47 43 25 0.641309 0.742811 0.192239 0.000000 
-0.088033 0.207071 -0.557144 36 34 24 -0.240543 0.970549 -0.013164 0.000000 
-0.095079 0.214530 -0.525588 63 68 59 0.961573 0.247855 0.118088 0.000000 
-0.058403 0.187621 -0.672834 93 87 73 -0.980679 -0.101365 -0.167314 0.000000 
-0.070625 0.190799 -0.642868 110 117 117 -0.585387 -0.806885 0.079106 0.000000 
-0.084642 0.205151 -0.562716 120 116 107 0.995175 -0.096377 0.018409 0.000000 
-0.112725 0.224345 -0.468343 74 65 36 0.938944 -0.108805 0.326414 0.000000 
-0.088459 0.206833 -0.564893 48 48 35 -0.274499 -0.958830 -0.072774 0.000000 
-0.102761 0.217256 -0.495867 40 37 25 0.314179 -0.942538 0.113639 0.000000 
-0.114402 0.233879 -0.448503 118 114 98 0.329869 -0.303002 0.894079 0.000000 
-0.068936 0.190921 -0.641886 82 83 75 -0.144121 -0.976265 0.161666 0.000000 
-0.090564 0.209696 -0.543887 70 72 66 0.802066 -0.524731 0.285214 0.000000 
-0.109293 0.226072 -0.464820 107 98 73 0.722159 0.598267 0.347223 0.000000 
-0.116238 0.224900 -0.462020 87 79 54 0.960764 -0.181052 0.210126 0.000000 
-0.103056 0.218562 -0.504191 45 46 39 -0.962995 -0.015827 -0.269054 0.000000 
-0.093764 0.211325 -0.530733 50 52 46 -0.181309 0.978083 -0.102372 0.000000 
-0.087857 0.212880 -0.553137 63 61 49 -0.374002 0.647501 -0.663977 0.000000 
-0.099797 0.219151 -0.508711 52 53 42 0.388539 0.920640 0.038195 0.000000 
-0.091690 0.211778 -0.541491 64 68 61 -0.907065 -0.414775 -0.072076 0.000000 
-0.073229 0.194617 -0.623604 82 79 64 -0.258722 0.945909 -0.195753 0.000000 
-0.101370 0.217296 -0.510873 46 49 41 0.945855 -0.218274 0.240239 0.000000 
-0.087449 0.207244 -0.562778 50 49 32 0.634974 0.760475 -0.135959 0.000000 
-0.082764 0.203555 -0.575821 90 92 81 0.619151 -0.665629 0.416641 0.000000 
-0.110412 0.227457 -0.454196 92 84 58 -0.325525 -0.808255 0.490670 0.000000 
-0.095211 0.214910 -0.523312 62 62 50 0.978623 0.102171 0.178491 0.000000 
-0.075931 0.202812 -0.599224 99 100 84 0.958988 0.132500 0.250570 0.000000 
-0.061517 0.188700 -0.663026 88 86 73 -0.957798 0.143604 -0.249001 0.000000 
-0.092369 0.209948 -0.546757 47 41 29 -0.615975 -0.787618 -0.015226 0.000000 
-0.063452 0.187886 -0.656400 115 106 88 -0.442992 0.820884 -0.360427 0.000000 
-0.072852 0.202085 -0.614327 94 97 90 -0.966693 -0.237545 -0.095272 0.000000 
-0.116211 0.235442 -0.449572 123 122 108 -0.892405 -0.150405 -0.425432 0.000000 
-0.106310 0.218652 -0.490656 59 54 39 -0.573061 -0.816005 0.075741 0.000000 
-0.060127 0.184509 -0.697502 84 85 74 -0.641624 -0.761472 0.092078 0.000000 
-0.085799 0.203187 -0.568556 77 72 58 -0.101730 0.994811 0.001071 0.000000 
-0.112490 0.223216 -0.457449 100 96 76 0.051196 -0.499506 0.864796 0.000000 
-0.105006 0.223372 -0.482648 54 55 35 0.791851 0.610700 0.004117 0.000000 
-0.115287 0.222654 -0.457530 86 80 56 0.205704 0.959508 0.192432 0.000000 
-0.112139 0.221994 -0.466674 78 71 48 0.642141 0.681355 0.351298 0.000000 
-0.116083 0.231513 -0.454389 89 80 57 -0.964135 0.215267 0.155253 0.000000 
-0.093763 0.211136 -0.538183 58 56 42 0.784473 0.619468 0.029365 0.000000 
-0.115662 0.223257 -0.461923 114 106 85 0.928673 0.287818 0.233940 0.000000 
-0.055610 0.183979 -0.687187 90 89 76 -0.861548 0.462988 -0.208270 0.000000 
-0.093104 0.217705 -0.540311 55 55 44 -0.799529 0.333536 -0.499506 0.000000 
-0.092282 0.212896 -0.539400 70 69 54 0.923298 0.362971 0.125591 0.000000 
-0.111431 0.221667 -0.459845 107 100 79 0.149601 0.934661 -0.322534 0.000000 
-0.105436 0.224291 -0.476292 86 86 73 0.959857 0.267837 -0.083299 0.000000 
-0.100075 0.216145 -0.503771 34 31 22 -0.348655 0.856917 -0.379647 0.000000 
-0.110606 0.223382 -0.458872 118 116 96 -0.898045 -0.084149 -0.431779 0.000000 
-0.090592 0.218130 -0.545566 85 85 78 -0.907450 -0.370770 -0.197648 0.000000 
-0.089847 0.208954 -0.568422 83 76 60 0.735527 0.514043 0.441316 0.000000 
-0.107893 0.222154 -0.473359 72 70 54 0.645458 -0.369537 0.668451 0.000000 
-0.114962 0.224742 -0.454814 114 109 90 -0.040837 0.787175 -0.615376 0.000000 
-0.103397 0.218683 -0.490013 36 35 25 0.688657 -0.656401 0.308041 0.000000 
-0.116099 0.223305 -0.459643 93 86 66 -0.881603 -0.470097 -0.042241 0.000000 
-0.072512 0.201959 -0.615276 92 95 89 0.947740 0.241367 0.208639 0.000000 
-0.095575 0.216831 -0.530215 70 68 50 -0.758309 -0.643458 -0.104544 0.000000 
-0.076430 0.202385 -0.594797 102 100 84 0.960286 -0.164658 0.225252 0.000000 
-0.072427 0.199808 -0.616980 95 97 89 -0.934392 0.237462 -0.265564 0.000000 
-0.103859 0.217588 -0.500178 52 50 39 -0.913517 -0.402270 0.060542 0.000000 
-0.113770 0.221730 -0.459598 117 118 112 0.065074 -0.955691 0.287090 0.000000 
-0.078568 0.201033 -0.593223 92 87 67 -0.112659 0.806174 -0.580855 0.000000 
-0.092790 0.212689 -0.531740 64 69 64 0.968996 -0.107948 0.222247 0.000000 
-0.093901 0.211228 -0.530363 29 27 19 0.019138 -0.989542 0.142971 0.000000 
-0.080281 0.203470 -0.581998 90 92 78 -0.832484 0.460756 -0.307691 0.000000 
-0.114553 0.223291 -0.455835 108 102 78 0.633584 -0.414075 0.653539 0.000000 
-0.059557 0.188083 -0.677015 82 85 72 -0.951866 -0.233578 -0.198474 0.000000 
-0.117363 0.224181 -0.454690 106 97 72 -0.047164 0.309751 -0.949647 0.000000 
-0.089242 0.208012 -0.555845 50 42 29 0.438514 0.895011 -0.081616 0.000000 
-0.110837 0.229760 -0.451148 96 87 66 -0.968894 0.246164 -0.025465 0.000000 
-0.097352 0.217137 -0.518162 57 57 44 -0.553450 -0.798394 0.237193 0.000000 
-0.080603 0.201881 -0.588486 90 85 64 -0.276086 -0.939247 0.203943 0.000000 
-0.111415 0.228605 -0.463746 90 83 62 -0.281095 0.808738 0.516650 0.000000 
-0.098817 0.216245 -0.521566 66 62 50 -0.985362 0.162860 0.050381 0.000000 
-0.119164 0.224229 -0.454455 112 116 112 -0.845121 0.253076 -0.470875 0.000000 
-0.087002 0.211965 -0.555902 55 57 47 0.358455 -0.493478 0.792458 0.000000 
-0.084102 0.202923 -0.578529 80 70 51 0.444061 0.892272 -0.081619 0.000000 
-0.065523 0.189344 -0.649167 103 94 75 -0.483207 0.824111 -0.295554 0.000000 
-0.063449 0.187846 -0.659641 84 82 69 -0.366881 0.836111 -0.407820 0.000000 
-0.106504 0.223076 -0.486544 90 90 75 -0.576518 0.793668 -0.194212 0.000000 
-0.109114 0.227584 -0.473093 107 103 90 -0.488023 -0.865847 0.110199 0.000000 
-0.098860 0.218215 -0.508601 67 72 66 0.921509 0.382285 0.068409 0.000000 
-0.110094 0.223085 -0.459620 126 125 103 0.957457 -0.099762 0.270783 0.000000 
-0.089236 0.208807 -0.560316 45 43 27 -0.506218 -0.838660 0.200976 0.000000 
-0.077136 0.205119 -0.593912 96 98 90 0.915760 0.376091 0.141209 0.000000 
-0.075270 0.196000 -0.628639 99 98 87 0.751545 0.657065 0.058692 0.000000 
-0.101620 0.222419 -0.495572 124 125 124 0.801353 0.597169 0.034963 0.000000 
-0.107948 0.219102 -0.485729 114 107 92 -0.859886 -0.478043 -0.179081 0.000000 
-0.091046 0.213493 -0.545933 63 68 56 -0.935878 -0.213397 -0.280345 0.000000 
-0.063110 0.191140 -0.661609 88 92 80 -0.948846 -0.224619 -0.221896 0.000000 
-0.111118 0.228688 -0.461139 78 71 46 -0.046066 0.962406 -0.267681 0.000000 
-0.090091 0.211922 -0.548274 67 66 51 -0.942608 -0.293286 -0.159602 0.000000 
-0.111237 0.229035 -0.452097 93 86 65 0.856465 -0.514431 -0.042754 0.000000 
-0.071478 0.194324 -0.627117 61 60 46 -0.914416 0.325029 -0.241244 0.000000 
-0.082340 0.202430 -0.588165 79 76 57 0.193019 -0.925647 0.325456 0.000000 
-0.103033 0.217085 -0.492060 62 65 57 -0.357781 0.895196 -0.265738 0.000000 
-0.104674 0.222785 -0.484760 48 48 28 0.831446 0.552890 0.054867 0.000000 
-0.096112 0.213610 -0.532656 55 55 40 0.430282 0.882592 -0.189442 0.000000 
-0.104363 0.218359 -0.501642 56 52 40 -0.956815 -0.091927 -0.275780 0.000000 
-0.094633 0.217733 -0.536199 64 64 48 0.864887 0.459983 0.200963 0.000000 
-0.090236 0.208190 -0.558131 67 64 47 0.245052 0.969450 0.010758 0.000000 
-0.093681 0.210770 -0.532774 42 40 30 -0.162067 0.874577 -0.457000 0.000000 
-0.102082 0.218335 -0.494500 55 57 50 0.920366 -0.297217 0.254142 0.000000 
-0.084614 0.205091 -0.562420 123 116 102 0.910044 0.408231 0.071881 0.000000 
-0.098545 0.217018 -0.508680 44 45 36 -0.995815 -0.031493 -0.085790 0.000000 
-0.061420 0.190575 -0.668982 85 88 77 0.991076 -0.107050 -0.079424 0.000000 
-0.111360 0.228374 -0.461383 85 77 51 -0.019167 -0.934093 0.356514 0.000000 
-0.104667 0.222145 -0.483812 76 77 58 0.979178 0.201491 0.024745 0.000000 
-0.101448 0.216228 -0.503205 39 38 30 -0.258219 -0.963599 0.069278 0.000000 
-0.084948 0.202831 -0.587286 100 94 80 -0.735490 -0.677534 -0.001380 0.000000 
-0.102620 0.216486 -0.502198 49 49 41 0.447048 0.889918 0.090524 0.000000 
-0.099820 0.219105 -0.504232 55 56 47 -0.940762 -0.264633 -0.211983 0.000000 
-0.057885 0.182720 -0.708324 72 76 68 0.605879 0.790969 -0.085315 0.000000 
-0.056192 0.183963 -0.685828 69 70 59 0.797294 -0.600467 0.061330 0.000000 
-0.088274 0.208424 -0.553078 38 37 28 0.930409 0.256323 0.261987 0.000000 
-0.116365 0.229945 -0.452686 57 46 16 -0.881881 0.465244 0.076383 0.000000 
-0.056675 0.186876 -0.684560 83 84 72 -0.907814 -0.350053 -0.230948 0.000000 
-0.048662 0.179007 -0.721316 54 57 43 0.653042 -0.724736 0.219759 0.000000 
-0.088804 0.208715 -0.553366 60 61 52 0.942238 0.113926 0.314973 0.000000 
-0.077324 0.205740 -0.592336 96 93 78 -0.914319 -0.289268 -0.283453 0.000000 
-0.088151 0.208580 -0.546472 68 74 69 0.860615 -0.441691 0.253479 0.000000 
-0.069035 0.191180 -0.655316 95 94 84 -0.768678 -0.629992 0.110654 0.000000 
-0.097634 0.213731 -0.519718 45 41 28 0.391259 0.904339 -0.170549 0.000000 
-0.114747 0.226038 -0.451822 109 102 80 -0.919644 0.161464 -0.358029 0.000000 
-0.112452 0.232506 -0.450080 93 84 56 -0.545956 -0.836387 -0.048871 0.000000 
-0.064594 0.189210 -0.650985 101 98 84 0.762873 -0.419825 0.491702 0.000000 
-0.089352 0.210966 -0.553890 66 71 59 0.921439 -0.191082 0.338286 0.000000 
-0.086420 0.204045 -0.566713 41 36 19 -0.407400 0.859383 -0.309009 0.000000 
-0.104440 0.221870 -0.489800 82 83 70 0.475478 0.877911 -0.056506 0.000000 
-0.091689 0.209391 -0.544103 51 49 38 0.553602 0.773767 -0.307911 0.000000 
-0.091731 0.210159 -0.549527 39 37 26 -0.239653 -0.969675 0.047931 0.000000 
-0.099309 0.214473 -0.519504 63 62 50 -0.749013 -0.660894 -0.046902 0.000000 
-0.078708 0.198523 -0.607771 91 89 76 0.674959 0.720462 -0.159260 0.000000 
-0.096249 0.216016 -0.514143 96 87 74 -0.983767 0.104759 -0.145699 0.000000 
-0.115974 0.232228 -0.448972 68 60 28 -0.387544 -0.860007 -0.331960 0.000000 
-0.062944 0.188265 -0.677990 68 71 61 -0.769772 -0.637004 0.040960 0.000000 
-0.097243 0.212909 -0.531072 66 67 58 -0.407028 -0.907131 0.106966 0.000000 
-0.078560 0.200762 -0.593562 91 97 90 -0.101395 0.901442 -0.420858 0.000000 
-0.109782 0.223937 -0.476369 77 69 41 -0.994649 0.054456 0.087796 0.000000 
-0.117859 0.225368 -0.457503 90 83 66 -0.755890 0.568932 -0.323953 0.000000 
-0.060346 0.184618 -0.684911 82 85 79 -0.459341 -0.888235 -0.006619 0.000000 
-0.070173 0.192919 -0.631334 90 88 77 0.466589 -0.856168 0.221970 0.000000 
-0.086378 0.212544 -0.555367 90 88 75 0.581932 -0.531329 0.615667 0.000000 
-0.069466 0.197614 -0.632115 88 91 79 0.947358 -0.152278 0.281647 0.000000 
-0.093547 0.215707 -0.537221 67 65 47 -0.859803 -0.501670 0.095218 0.000000 
-0.067910 0.193713 -0.643188 77 81 69 -0.956075 0.023622 -0.292169 0.000000 
-0.084273 0.208103 -0.566209 90 86 70 0.993614 0.110889 -0.020860 0.000000 
-0.091318 0.209077 -0.544263 46 44 34 -0.008985 0.925489 -0.378668 0.000000 
-0.093310 0.208457 -0.549893 102 109 109 -0.642776 -0.741427 0.192679 0.000000 
-0.081833 0.202124 -0.583443 94 87 64 0.068911 -0.992991 0.096023 0.000000 
-0.100445 0.218075 -0.501396 32 32 25 -0.956466 0.160963 -0.243440 0.000000 
-0.068367 0.191440 -0.651845 82 83 71 -0.859119 -0.480574 -0.175964 0.000000 
-0.101178 0.220521 -0.498564 59 64 58 0.951080 0.300681 -0.070976 0.000000 
-0.100977 0.217387 -0.510640 42 41 32 0.864976 -0.385629 0.321101 0.000000 
-0.107034 0.224175 -0.473017 98 93 72 -0.927150 0.285386 -0.242791 0.000000 
-0.101662 0.216476 -0.508947 40 43 33 -0.776972 -0.488243 -0.397407 0.000000 
-0.091575 0.213290 -0.543989 64 64 47 -0.968355 0.003582 -0.249551 0.000000 
-0.106708 0.225296 -0.475711 114 112 96 0.695874 0.718098 0.009723 0.000000 
-0.096999 0.213279 -0.521038 39 35 25 -0.279318 -0.959613 0.033518 0.000000 
-0.060954 0.190693 -0.663009 97 94 81 0.949097 0.168758 0.265963 0.000000 
-0.067034 0.196086 -0.642157 86 89 81 0.773499 -0.589851 0.231894 0.000000 
-0.113207 0.222296 -0.463880 95 88 67 0.659573 0.750353 0.043972 0.000000 
-0.103478 0.222058 -0.493399 72 77 68 0.251860 0.967673 -0.013256 0.000000 
-0.093816 0.220986 -0.544465 100 101 97 -0.525555 -0.850443 -0.023206 0.000000 
-0.086446 0.212393 -0.563264 119 110 92 0.192327 0.958981 -0.208244 0.000000 
-0.074638 0.197875 -0.610093 59 52 34 -0.478895 0.809825 -0.338886 0.000000 
-0.090636 0.213592 -0.547339 59 57 40 -0.946851 -0.052674 -0.317330 0.000000 
-0.101617 0.214918 -0.507193 97 103 103 0.502687 0.840831 -0.200773 0.000000 
-0.073582 0.203207 -0.609564 96 103 98 -0.750122 -0.572674 -0.330699 0.000000 
-0.080550 0.207929 -0.580779 101 101 84 0.812861 0.548491 0.195998 0.000000 
-0.108805 0.222291 -0.471093 60 58 44 -0.635058 0.654955 -0.409554 0.000000 
-0.061256 0.187982 -0.665561 81 80 66 0.946452 0.055371 0.318060 0.000000 
-0.068172 0.191061 -0.648573 84 83 71 -0.778767 -0.607047 0.158164 0.000000 
-0.115751 0.233534 -0.450569 114 110 90 0.677161 0.683535 -0.272458 0.000000 
-0.088915 0.207552 -0.556467 43 37 25 -0.599434 -0.795875 0.085221 0.000000 
-0.105205 0.222035 -0.489647 67 68 57 0.056989 -0.976089 0.209768 0.000000 
-0.068104 0.194422 -0.641174 70 72 59 0.958935 -0.247933 0.137740 0.000000 
-0.061906 0.191244 -0.665370 81 84 74 -0.917835 -0.162137 -0.362340 0.000000 
-0.081958 0.199498 -0.597077 120 125 125 -0.383061 -0.923701 0.006406 0.000000 
-0.074290 0.201510 -0.606433 86 84 68 -0.967886 0.134964 -0.212087 0.000000 
-0.094214 0.222022 -0.533944 72 74 67 0.909963 0.035867 0.413136 0.000000 
-0.078915 0.198033 -0.609521 99 99 86 -0.617321 -0.762030 0.195511 0.000000 
-0.072463 0.192864 -0.635190 97 97 90 0.826077 0.509183 0.241516 0.000000 
-0.059441 0.186419 -0.674213 82 82 68 0.908086 -0.360628 0.212901 0.000000 
-0.058868 0.183399 -0.704055 83 84 75 0.396187 0.910535 -0.118161 0.000000 
-0.050333 0.178758 -0.723207 71 73 57 -0.139993 -0.987010 0.078820 0.000000 
-0.112272 0.226945 -0.469308 95 87 65 0.996907 0.026770 -0.073885 0.000000 
-0.086835 0.207948 -0.557340 48 46 34 -0.777208 0.576233 -0.252789 0.000000 
-0.107434 0.225375 -0.465825 121 112 93 0.980461 0.143932 0.134091 0.000000 
-0.116350 0.233289 -0.455571 98 90 73 0.223012 -0.940531 0.256257 0.000000 
-0.065204 0.188473 -0.652503 95 89 72 -0.178540 -0.980147 0.086233 0.000000 
-0.063476 0.195356 -0.655042 99 98 85 -0.985384 -0.132901 -0.106560 0.000000 
-0.077389 0.197722 -0.608462 87 83 65 0.058909 -0.994777 0.083361 0.000000 
-0.057799 0.188699 -0.682077 84 84 72 -0.968153 0.105317 -0.227129 0.000000 
-0.071834 0.197688 -0.618984 89 92 80 -0.897106 0.286184 -0.336600 0.000000 
-0.085267 0.204145 -0.564506 113 111 103 -0.144530 0.988950 -0.033003 0.000000 
-0.113740 0.227047 -0.451957 102 93 67 -0.651815 0.226650 -0.723718 0.000000 
-0.100941 0.217768 -0.510294 48 49 41 0.737090 -0.605409 0.300296 0.000000 
-0.107942 0.225794 -0.475521 101 95 77 -0.266783 0.875712 -0.402436 0.000000 
-0.059295 0.188659 -0.677856 84 88 76 -0.964990 0.189342 -0.181507 0.000000 
-0.117305 0.226823 -0.454090 92 82 50 -0.937669 0.213170 -0.274474 0.000000 
-0.102118 0.218104 -0.493918 58 59 50 0.911328 -0.313497 0.266837 0.000000 
-0.077906 0.198352 -0.602891 88 84 67 0.077905 -0.973191 0.216402 0.000000 
-0.112421 0.223797 -0.469309 99 91 65 0.897450 -0.427024 0.110606 0.000000 
-0.093212 0.221828 -0.536655 106 102 87 -0.989123 -0.010082 -0.146744 0.000000 
-0.087321 0.215251 -0.552166 108 106 96 0.897741 0.183596 -0.400442 0.000000 
-0.055413 0.180795 -0.722178 83 80 66 -0.494660 -0.868705 0.025749 0.000000 
-0.084436 0.212150 -0.565198 125 119 106 0.505377 0.790955 -0.344940 0.000000 
-0.118035 0.224122 -0.456328 90 88 72 0.789959 -0.079429 -0.607994 0.000000 
-0.118741 0.226227 -0.454740 77 71 51 -0.821701 -0.078598 0.564473 0.000000 
-0.113414 0.222100 -0.459100 104 107 98 -0.139058 -0.970857 0.195192 0.000000 
-0.066856 0.194228 -0.645106 92 96 83 -0.833585 0.434845 -0.340655 0.000000 
-0.068225 0.191356 -0.641405 71 71 59 0.338433 -0.910719 0.236758 0.000000 
-0.112894 0.227885 -0.462549 97 87 63 0.516222 -0.848802 -0.114234 0.000000 
-0.116246 0.222710 -0.459316 111 101 81 0.845443 0.511987 -0.151973 0.000000 
-0.108292 0.219085 -0.481905 144 132 113 0.506169 0.860348 -0.059959 0.000000 
-0.055543 0.180208 -0.715362 75 79 70 0.484719 0.850884 -0.202592 0.000000 
-0.103611 0.221676 -0.492262 67 70 59 0.512694 0.849649 0.123453 0.000000 
-0.088687 0.209174 -0.552424 39 39 29 0.960878 0.142886 0.237270 0.000000 
-0.115209 0.222432 -0.460157 97 92 72 0.412911 0.880976 0.231051 0.000000 
-0.061447 0.186834 -0.665433 82 82 68 0.762715 -0.634852 0.123402 0.000000 
-0.083821 0.209939 -0.569313 97 93 81 0.759932 0.212038 0.614446 0.000000 
-0.091696 0.214398 -0.542308 61 60 44 0.920536 -0.099554 0.377761 0.000000 
-0.105436 0.224351 -0.480066 69 69 49 0.749904 0.657430 -0.073690 0.000000 
-0.098879 0.215815 -0.520193 45 45 32 -0.988015 -0.042557 -0.148375 0.000000 
-0.110168 0.222411 -0.465130 104 102 86 0.872721 -0.486368 -0.042472 0.000000 
-0.104438 0.217949 -0.489469 64 68 62 -0.348227 0.877412 -0.329980 0.000000 
-0.091733 0.209553 -0.555229 50 43 30 0.439262 0.855566 -0.273965 0.000000 
-0.112849 0.227583 -0.452519 93 86 63 0.604240 -0.793693 0.070327 0.000000 
-0.115018 0.226081 -0.454333 83 79 56 -0.136450 -0.748225 0.649261 0.000000 
-0.093600 0.215892 -0.536776 64 61 43 -0.861652 -0.500633 0.083204 0.000000 
-0.110654 0.229364 -0.456349 88 79 54 0.938708 0.328079 0.105789 0.000000 
-0.105458 0.223976 -0.479610 66 65 44 0.786896 0.592825 0.171328 0.000000 
-0.098912 0.218548 -0.507978 74 75 65 -0.810406 -0.580095 -0.082048 0.000000 
-0.072012 0.197575 -0.619735 54 54 38 -0.920108 0.302875 -0.248329 0.000000 
-0.104141 0.222009 -0.487608 82 87 73 0.659992 0.750441 -0.035331 0.000000 
-0.062577 0.188060 -0.661711 76 75 60 0.751050 -0.114065 0.650318 0.000000 
-0.079733 0.201629 -0.588222 93 98 89 -0.106270 0.989133 -0.101599 0.000000 
-0.109973 0.223250 -0.462129 116 109 85 -0.922811 0.348680 -0.163837 0.000000 
-0.064823 0.187939 -0.659615 89 86 70 0.384634 0.874168 -0.296457 0.000000 
-0.100038 0.217291 -0.513412 39 38 29 -0.751121 0.531839 -0.391107 0.000000 
-0.098463 0.214555 -0.516403 40 37 25 -0.511672 -0.852787 -0.104628 0.000000 
-0.089199 0.208525 -0.569503 77 71 52 -0.856965 -0.502657 -0.113782 0.000000 
-0.108704 0.220879 -0.479017 124 115 96 -0.097713 0.280111 -0.954982 0.000000 
-0.060570 0.185994 -0.668472 94 92 78 0.337857 -0.919484 0.201003 0.000000 
-0.113204 0.225294 -0.456198 92 86 64 -0.557517 0.713026 -0.425169 0.000000 
-0.092985 0.210458 -0.546197 52 50 36 0.523983 0.851642 -0.012186 0.000000 
-0.116442 0.232682 -0.455611 75 70 47 -0.257634 -0.831526 0.492128 0.000000 
-0.068039 0.190374 -0.647264 93 89 73 0.547766 0.828223 0.118318 0.000000 
-0.103788 0.216656 -0.501344 95 99 98 0.933568 0.312114 0.176171 0.000000 
-0.117524 0.228263 -0.454100 80 73 55 -0.794796 0.193741 -0.575121 0.000000 
-0.067936 0.190149 -0.645953 89 86 72 -0.492818 -0.868952 0.045301 0.000000 
-0.102679 0.219437 -0.491076 44 44 33 0.971163 -0.005929 0.238344 0.000000 
-0.066598 0.189392 -0.649504 88 91 84 0.134702 -0.968571 0.209109 0.000000 
-0.111901 0.230250 -0.454302 99 88 58 0.980426 0.187945 0.058658 0.000000 
-0.080313 0.200936 -0.591119 102 106 99 0.161422 0.979621 -0.119526 0.000000 
-0.102687 0.217208 -0.495394 58 61 57 -0.305995 0.950996 0.044439 0.000000 
-0.055743 0.188143 -0.691570 96 97 88 -0.954787 -0.226947 -0.192032 0.000000 
-0.112595 0.230930 -0.452803 120 112 89 0.969728 0.212247 0.120739 0.000000 
-0.116772 0.228643 -0.456456 71 62 33 0.955525 0.183087 0.231197 0.000000 
-0.073993 0.200446 -0.608059 89 92 82 0.682135 -0.348429 0.642876 0.000000 
-0.102673 0.216763 -0.497005 84 89 87 -0.118867 0.927711 -0.353869 0.000000 
-0.113711 0.222464 -0.459106 96 95 77 0.226772 -0.931031 0.285929 0.000000 
-0.097830 0.217001 -0.519337 47 45 36 0.217380 -0.964540 0.149693 0.000000 
-0.051965 0.182637 -0.701963 75 73 59 0.950939 -0.308649 0.021243 0.000000 
-0.115195 0.222178 -0.459158 116 105 83 -0.409950 -0.872846 0.264728 0.000000 
-0.064559 0.194152 -0.651895 84 87 75 -0.968313 -0.025450 -0.248441 0.000000 
-0.073759 0.199068 -0.610094 80 83 71 0.763045 -0.641421 0.079635 0.000000 
-0.059219 0.185710 -0.689388 71 72 59 0.491255 0.863635 0.113146 0.000000 
-0.105571 0.221430 -0.492112 64 66 59 0.508561 -0.815263 0.276970 0.000000 
-0.099019 0.215539 -0.508343 38 39 31 -0.631678 0.648345 -0.425008 0.000000 
-0.094239 0.222687 -0.535896 101 95 77 0.826572 0.546628 0.134079 0.000000 
-0.112067 0.229105 -0.467099 110 104 86 -0.331246 0.929985 0.159386 0.000000 
-0.109637 0.219941 -0.479015 111 103 79 -0.313439 -0.934795 0.167076 0.000000 
-0.114646 0.232440 -0.454771 90 81 57 0.008680 0.951098 -0.308766 0.000000 
-0.060106 0.186048 -0.672836 80 81 68 0.426411 -0.832367 0.354031 0.000000 
-0.102539 0.219215 -0.492455 44 49 42 0.979808 0.031912 0.197380 0.000000 
-0.109329 0.224420 -0.464961 66 61 43 -0.788662 0.530554 -0.310685 0.000000 
-0.085887 0.203217 -0.569872 59 57 44 -0.293622 0.931442 -0.214948 0.000000 
-0.108568 0.222816 -0.480253 80 74 52 0.829958 -0.274584 0.485564 0.000000 
-0.089553 0.211100 -0.550221 72 74 61 -0.977932 -0.082004 -0.192159 0.000000 
-0.106566 0.221203 -0.480543 88 85 71 -0.076771 -0.978521 0.191317 0.000000 
-0.093385 0.215854 -0.535054 67 71 59 0.912078 0.409850 0.011710 0.000000 
-0.062251 0.186762 -0.686662 74 75 66 -0.696709 -0.711377 -0.092406 0.000000 
-0.095040 0.214782 -0.526122 65 65 53 -0.931976 -0.327227 -0.156020 0.000000 
-0.112391 0.221003 -0.462531 124 123 118 -0.173351 -0.969484 0.173351 0.000000 
-0.110170 0.229297 -0.454078 104 98 80 0.707148 0.669517 -0.227353 0.000000 
-0.065727 0.189445 -0.650849 92 89 72 0.079662 -0.760410 0.644538 0.000000 
-0.108177 0.226754 -0.472509 123 116 95 0.669398 0.736778 -0.095210 0.000000 
-0.108323 0.222957 -0.480558 76 70 51 -0.943247 0.161972 -0.289916 0.000000 
-0.114145 0.220548 -0.456069 104 103 88 0.141365 -0.989554 0.028273 0.000000 
-0.057312 0.183188 -0.684793 72 74 66 0.051012 0.964250 -0.260037 0.000000 
-0.116279 0.234871 -0.448700 116 112 95 -0.952058 -0.297599 0.070857 0.000000 
-0.089956 0.207900 -0.556087 86 78 62 0.575128 0.817867 -0.017930 0.000000 
-0.078602 0.196785 -0.606859 116 117 111 0.400595 0.911935 -0.088869 0.000000 
-0.087619 0.216690 -0.553496 120 119 109 -0.963217 -0.228096 0.142071 0.000000 
-0.108127 0.221498 -0.473263 95 92 81 -0.260274 0.965534 0.001199 0.000000 
-0.061642 0.186560 -0.678281 85 79 64 0.637493 0.769776 -0.032367 0.000000 
-0.111682 0.231702 -0.456507 95 88 68 -0.387194 -0.782489 0.487638 0.000000 
-0.107698 0.225052 -0.479431 79 78 60 -0.347265 0.770443 -0.534626 0.000000 
-0.099525 0.218120 -0.505634 63 66 58 -0.965718 -0.193664 -0.172867 0.000000 
-0.100566 0.217820 -0.501208 39 42 36 -0.914540 0.317408 -0.250738 0.000000 
-0.090859 0.214171 -0.546589 53 51 34 0.934942 -0.019185 0.354281 0.000000 
-0.054487 0.182257 -0.695213 62 65 54 0.265144 -0.623961 0.735099 0.000000 
-0.072587 0.197285 -0.617389 64 62 46 0.948930 -0.315485 -0.001237 0.000000 
-0.110568 0.228269 -0.471253 98 91 71 -0.191968 -0.940505 0.280356 0.000000 
-0.091834 0.219490 -0.541767 102 102 90 -0.890111 -0.386554 -0.241411 0.000000 
-0.106527 0.221082 -0.490367 67 67 58 0.699946 -0.693847 0.169268 0.000000 
-0.093625 0.211080 -0.544434 51 47 32 0.395266 0.879204 -0.266016 0.000000 
-0.067189 0.191677 -0.666737 86 81 70 0.941518 0.327885 0.077692 0.000000 
-0.103474 0.219663 -0.488496 37 36 23 -0.884740 0.354197 -0.302952 0.000000 
-0.105161 0.223489 -0.479672 48 48 30 0.944548 0.327494 -0.024025 0.000000 
-0.112265 0.231470 -0.450192 107 100 80 0.978236 -0.150402 0.142944 0.000000 
-0.059370 0.184980 -0.680288 80 77 57 -0.323762 -0.916606 0.234547 0.000000 
-0.096832 0.216837 -0.518995 64 64 52 -0.633471 -0.772352 0.046766 0.000000 
-0.089114 0.207814 -0.556229 45 41 29 0.376455 0.926363 -0.011563 0.000000 
-0.096989 0.213791 -0.527249 52 48 36 0.675831 0.715676 0.176237 0.000000 
-0.096110 0.212335 -0.528227 57 53 40 -0.720787 -0.688881 -0.076865 0.000000 
-0.083749 0.203972 -0.571547 103 97 78 0.703751 -0.625737 0.336435 0.000000 
-0.099349 0.215826 -0.505827 69 72 67 -0.752947 0.544789 -0.369155 0.000000 
-0.094939 0.211305 -0.539118 80 75 61 0.439233 0.864881 -0.243012 0.000000 
-0.107642 0.221550 -0.471518 103 100 86 0.943269 0.251998 0.216195 0.000000 
-0.085564 0.210073 -0.558573 59 60 49 -0.805089 0.549554 -0.223208 0.000000 
-0.072096 0.198872 -0.618631 93 96 86 0.890716 -0.226002 0.394396 0.000000 
-0.071201 0.197807 -0.624943 87 90 78 0.930131 -0.345555 0.124291 0.000000 
-0.107189 0.221375 -0.475172 115 112 100 0.749180 -0.585548 0.309618 0.000000 
-0.054286 0.181267 -0.696676 70 76 69 0.408292 -0.891217 0.197560 0.000000 
-0.064203 0.190766 -0.653676 73 73 59 0.990798 -0.030434 0.131881 0.000000 
-0.095868 0.212020 -0.526173 85 92 91 0.093685 0.946082 0.310083 0.000000 
-0.105649 0.224272 -0.478293 65 65 48 0.829738 0.558138 0.004074 0.000000 
-0.101931 0.217483 -0.492658 70 73 66 0.920795 -0.321207 0.221276 0.000000 
-0.072061 0.194280 -0.625999 82 88 81 0.493585 -0.789415 0.364964 0.000000 
-0.108776 0.219918 -0.487525 111 109 96 0.961768 -0.117794 0.247238 0.000000 
-0.096492 0.213774 -0.527698 48 46 33 0.807845 0.580775 0.100435 0.000000 
-0.061721 0.193610 -0.672682 108 115 114 -0.974379 -0.124469 -0.187332 0.000000 
-0.086595 0.208256 -0.557043 47 45 34 -0.684085 0.540243 -0.490066 0.000000 
-0.113418 0.233123 -0.453867 108 104 86 -0.546835 -0.837213 0.006785 0.000000 
-0.103801 0.221749 -0.491251 51 53 41 0.622490 0.782598 0.006901 0.000000 
-0.057217 0.183424 -0.684215 68 69 59 -0.095285 -0.904514 0.415662 0.000000 
-0.084657 0.203225 -0.577932 53 48 29 0.459456 0.877144 0.139709 0.000000 
-0.091892 0.209684 -0.544018 54 51 39 -0.597351 -0.730096 0.331862 0.000000 
-0.098155 0.213099 -0.515684 105 110 109 -0.541658 -0.826585 -0.152851 0.000000 
-0.109873 0.224579 -0.461600 76 71 47 0.946682 0.118502 0.299583 0.000000 
-0.082670 0.206978 -0.572178 92 89 73 -0.946332 0.034297 -0.321372 0.000000 
-0.103801 0.217214 -0.498071 55 55 46 -0.641624 -0.761472 -0.092078 0.000000 
-0.081622 0.199899 -0.602711 94 87 73 0.529519 0.843519 -0.089918 0.000000 
-0.092528 0.212632 -0.533846 70 71 62 -0.994457 0.063618 -0.083709 0.000000 
-0.110532 0.228238 -0.464320 108 100 76 -0.737038 -0.675735 -0.012539 0.000000 
-0.107591 0.225710 -0.477489 102 99 78 -0.399654 -0.896678 0.190381 0.000000 
-0.068652 0.193681 -0.637899 56 55 40 0.963775 0.033234 0.264638 0.000000 
-0.099950 0.216285 -0.503874 63 65 59 0.648113 -0.661307 0.377654 0.000000 
-0.084122 0.211978 -0.565055 116 105 84 -0.852983 -0.393087 0.343369 0.000000 
-0.112437 0.227887 -0.466424 112 103 83 0.949754 0.191035 -0.247939 0.000000 
-0.072560 0.202450 -0.616679 103 108 104 0.918108 0.396072 0.014285 0.000000 
-0.108944 0.223975 -0.463228 75 72 53 -0.928236 -0.257291 -0.268662 0.000000 
-0.105120 0.223871 -0.481743 45 45 25 0.949587 0.313202 0.013726 0.000000 
-0.108874 0.223111 -0.465026 85 82 65 0.527991 -0.847307 0.057421 0.000000 
-0.098472 0.218749 -0.515425 65 66 55 0.431127 0.901202 0.044321 0.000000 
-0.107970 0.221102 -0.479534 97 89 68 -0.505795 0.562928 -0.653669 0.000000 
-0.085253 0.203372 -0.581421 58 54 36 -0.621925 -0.773325 0.123198 0.000000 
-0.079339 0.201040 -0.593502 93 90 72 0.182324 0.933889 -0.307585 0.000000 
-0.106953 0.221899 -0.485149 58 53 31 0.655745 -0.732531 0.182749 0.000000 
-0.112894 0.222784 -0.466887 78 71 50 0.745614 0.539136 0.391652 0.000000 
-0.105801 0.221416 -0.477277 83 81 63 -0.037174 -0.852249 0.521813 0.000000 
-0.105887 0.218462 -0.484113 113 105 83 0.022579 0.899189 -0.436977 0.000000 
-0.113466 0.231390 -0.469435 121 120 115 0.867892 0.442190 -0.226342 0.000000 
-0.084941 0.206104 -0.561579 110 109 104 0.947030 -0.161225 0.277741 0.000000 
-0.064885 0.195717 -0.652149 98 103 99 0.966267 0.178168 0.185971 0.000000 
-0.111936 0.230614 -0.451839 101 91 60 -0.612906 -0.357937 0.704434 0.000000 
-0.071392 0.199769 -0.622148 94 98 87 0.980782 -0.053758 0.187555 0.000000 
-0.104667 0.221491 -0.482667 81 85 71 0.743128 -0.550405 0.380547 0.000000 
-0.115623 0.222128 -0.457573 111 101 81 0.309489 0.922763 0.229621 0.000000 
-0.105172 0.223569 -0.478309 62 63 45 -0.919712 -0.356336 -0.164788 0.000000 
-0.108192 0.226938 -0.477562 110 113 107 0.644410 0.693106 -0.323017 0.000000 
-0.112550 0.223071 -0.467950 97 90 65 -0.929454 -0.303236 -0.210150 0.000000 
-0.091197 0.210328 -0.541181 72 73 68 -0.941400 0.305649 -0.142636 0.000000 
-0.095287 0.212725 -0.531639 55 52 38 -0.870967 -0.490513 -0.028534 0.000000 
-0.081381 0.202586 -0.575681 119 111 100 -0.657236 0.620631 -0.427619 0.000000 
-0.085176 0.203951 -0.566368 105 106 102 -0.329006 0.924888 -0.190626 0.000000 
-0.098984 0.219871 -0.499622 70 67 54 0.928126 0.204216 0.311253 0.000000 
-0.098519 0.217503 -0.510052 68 69 58 -0.903801 -0.316994 -0.287506 0.000000 
-0.106786 0.218925 -0.492304 50 48 37 -0.874041 -0.358464 -0.327956 0.000000 
-0.096343 0.217414 -0.528334 71 75 63 0.618103 0.671131 0.409307 0.000000 
-0.112644 0.230753 -0.451692 118 111 87 0.997429 0.061067 -0.037497 0.000000 
-0.092376 0.216707 -0.542437 49 46 28 0.797446 0.180754 0.575680 0.000000 
-0.106955 0.227311 -0.469522 81 79 67 0.682471 0.730315 -0.029550 0.000000 
-0.107569 0.225849 -0.476169 109 105 84 -0.459124 -0.876246 0.146282 0.000000 
-0.085824 0.203344 -0.575429 91 89 81 -0.522105 -0.838623 0.155300 0.000000 
-0.054204 0.184167 -0.694574 75 81 72 -0.868857 0.137340 -0.475631 0.000000 
-0.088586 0.207538 -0.566110 45 44 28 0.258713 0.949517 0.177442 0.000000 
-0.083583 0.202476 -0.585146 73 65 45 0.186519 0.981862 0.034019 0.000000 
-0.102099 0.220608 -0.495022 44 45 35 -0.889513 -0.426677 -0.163439 0.000000 
-0.067392 0.190177 -0.652901 83 81 69 0.633664 0.711058 0.304739 0.000000 
-0.108765 0.224281 -0.479501 85 83 68 -0.737480 0.523000 -0.427310 0.000000 
-0.108829 0.224233 -0.466223 69 65 47 0.569619 -0.539194 0.620326 0.000000 
-0.094926 0.214605 -0.525015 62 62 50 -0.965534 -0.260274 0.001199 0.000000 
-0.084280 0.208497 -0.565526 115 107 85 -0.948719 -0.194644 0.249090 0.000000 
-0.073757 0.196470 -0.616759 79 81 72 0.681905 -0.615861 0.394614 0.000000 
-0.069680 0.194396 -0.632373 89 91 77 -0.972945 0.140438 -0.183455 0.000000 
-0.105410 0.217860 -0.488346 76 79 74 -0.368901 0.883857 -0.287592 0.000000 
-0.114526 0.228383 -0.458574 60 50 24 -0.579522 0.528835 -0.620071 0.000000 
-0.100046 0.214906 -0.508868 40 38 28 0.379399 0.873075 -0.306262 0.000000 
-0.113896 0.226928 -0.462878 85 78 54 -0.781566 0.466340 -0.414344 0.000000 
-0.071682 0.193422 -0.626867 89 83 63 0.679866 -0.692485 0.241344 0.000000 
-0.109892 0.220259 -0.480529 127 124 113 -0.665343 -0.662073 -0.344932 0.000000 
-0.099915 0.218625 -0.503059 53 54 45 0.969711 0.040354 0.240899 0.000000 
-0.089258 0.209633 -0.549167 43 44 36 0.954478 0.270633 0.125416 0.000000 
-0.092728 0.211590 -0.533261 44 44 37 0.959907 -0.257789 0.110111 0.000000 
-0.078682 0.201529 -0.590873 90 93 84 -0.509784 0.763861 0.395774 0.000000 
-0.078415 0.198411 -0.617838 112 106 94 -0.899557 -0.416592 -0.131332 0.000000 
-0.109561 0.221514 -0.470906 86 86 78 -0.440566 0.516469 -0.734276 0.000000 
-0.083493 0.206958 -0.570216 108 106 90 -0.798942 0.250740 -0.546645 0.000000 
-0.098128 0.214081 -0.522001 50 48 35 0.847631 0.526067 0.069108 0.000000 
-0.102347 0.216524 -0.506522 49 47 35 0.811518 0.580470 0.067032 0.000000 
-0.080418 0.201645 -0.590096 86 82 64 0.034098 -0.981778 0.186949 0.000000 
-0.084802 0.207310 -0.561444 111 102 82 0.958749 0.102215 0.265241 0.000000 
-0.061315 0.186237 -0.676996 79 74 61 0.405839 0.903593 0.137165 0.000000 
-0.082087 0.209090 -0.564820 78 74 62 -0.938502 -0.056127 0.340680 0.000000 
-0.075714 0.196864 -0.622992 86 87 75 -0.862523 -0.488521 -0.131915 0.000000 
-0.093572 0.219541 -0.539948 47 47 38 0.587470 -0.437690 0.680666 0.000000 
-0.090751 0.209558 -0.543963 31 31 24 0.670742 -0.686750 0.280143 0.000000 
-0.103387 0.221765 -0.493049 72 75 66 0.509585 0.860179 0.020383 0.000000 
-0.105436 0.223542 -0.485609 78 81 66 0.338402 0.868209 -0.362902 0.000000 
-0.102663 0.217360 -0.495269 44 46 41 -0.317710 0.948148 -0.008721 0.000000 
-0.105788 0.217679 -0.492452 88 91 89 -0.502969 -0.860824 0.077488 0.000000 
-0.064776 0.188948 -0.667965 76 73 61 0.476151 0.879354 -0.003979 0.000000 
-0.101732 0.217622 -0.496357 29 27 17 0.638636 -0.735447 0.226411 0.000000 
-0.049756 0.181230 -0.714496 64 66 52 -0.826338 0.517797 -0.221477 0.000000 
-0.090396 0.208593 -0.554261 70 64 47 0.631400 0.756159 0.171923 0.000000 
-0.108918 0.221973 -0.469490 95 88 68 0.125332 -0.942008 0.311307 0.000000 
-0.118146 0.230604 -0.453304 89 83 66 0.616516 0.521927 0.589491 0.000000 
-0.094368 0.211723 -0.535354 46 45 34 -0.787490 -0.577904 -0.214210 0.000000 
-0.108117 0.224532 -0.466279 107 102 84 0.981664 -0.170252 0.085730 0.000000 
-0.091977 0.209304 -0.547830 49 48 38 0.559226 0.777847 0.286742 0.000000 
-0.076193 0.196793 -0.621114 88 84 68 0.812284 0.581409 0.046456 0.000000 
-0.101732 0.216184 -0.506591 49 45 33 -0.447129 -0.892898 -0.053003 0.000000 
-0.075041 0.203893 -0.607476 92 97 92 -0.828241 -0.556408 -0.066542 0.000000 
-0.072189 0.201813 -0.610694 123 119 106 0.950033 0.028941 0.310805 0.000000 
-0.056103 0.179736 -0.691652 77 69 51 0.830819 -0.550542 -0.081509 0.000000 
-0.088548 0.207851 -0.555335 40 37 26 -0.099906 0.941784 -0.321032 0.000000 
-0.070454 0.193720 -0.648365 68 69 61 0.740261 0.667544 0.079989 0.000000 
-0.058467 0.184207 -0.711427 90 86 74 -0.760911 -0.647554 -0.041092 0.000000 
-0.067370 0.196509 -0.639766 82 81 67 0.899597 -0.403169 0.167867 0.000000 
-0.065234 0.192025 -0.655165 93 94 79 -0.995875 0.047006 0.077615 0.000000 
-0.066578 0.189998 -0.644955 102 100 95 0.612138 -0.461200 0.642325 0.000000 
-0.099267 0.214470 -0.515355 51 50 40 0.508938 0.860120 0.034295 0.000000 
-0.068088 0.194250 -0.640138 69 71 58 0.968653 -0.126680 0.213692 0.000000 
-0.078332 0.198068 -0.611976 98 93 77 -0.749124 -0.661325 -0.038235 0.000000 
-0.057543 0.181512 -0.692960 83 86 78 -0.146474 -0.971822 -0.184684 0.000000 
-0.080204 0.203128 -0.582262 85 81 61 0.809915 -0.546578 0.212813 0.000000 
-0.108175 0.225406 -0.469589 126 117 89 -0.916279 -0.336973 -0.216523 0.000000 
-0.109353 0.227871 -0.469167 125 117 97 -0.882420 -0.436105 -0.176484 0.000000 
-0.091447 0.210539 -0.539996 65 69 65 0.903778 -0.425702 0.044316 0.000000 
-0.086090 0.204799 -0.565002 56 50 36 0.069175 -0.995906 -0.058195 0.000000 
-0.096073 0.213390 -0.521438 34 33 24 0.396255 -0.806949 0.437966 0.000000 
-0.094870 0.214502 -0.526255 66 66 53 0.910965 0.353703 0.212222 0.000000 
