ply
format ascii 1.0
comment Created by Open3D
obj_info Generated by CloudCompare!
element vertex 610
property float x
property float y
property float z
property uchar red
property uchar green
property uchar blue
property float nx
property float ny
property float nz
property float scalar_stem1
end_header
-0.195794 -0.086432 -0.612558 111 104 85 -0.925815 0.330146 -0.184039 0.000000 
-0.203957 -0.091827 -0.515486 91 82 55 -0.819801 0.547033 -0.169356 0.000000 
-0.204593 -0.090834 -0.524408 87 78 57 -0.278332 -0.935699 -0.216791 0.000000 
-0.189090 -0.081762 -0.704200 79 81 65 -0.872721 0.042472 -0.486368 0.000000 
-0.188089 -0.078434 -0.716368 86 90 77 0.952748 -0.184620 0.241219 0.000000 
-0.199312 -0.085562 -0.565811 77 74 64 0.854319 0.373668 0.361264 0.000000 
-0.194369 -0.084521 -0.673090 67 74 70 -0.416950 0.902229 0.110164 0.000000 
-0.202157 -0.086197 -0.534427 77 72 54 -0.111840 -0.993276 0.029898 0.000000 
-0.195052 -0.084375 -0.624735 90 91 83 -0.855537 0.512760 -0.071646 0.000000 
-0.199632 -0.084395 -0.579790 82 77 64 -0.835862 -0.413996 -0.360475 0.000000 
-0.204527 -0.089684 -0.558657 99 103 98 0.246528 0.967531 0.055748 0.000000 
-0.187982 -0.080528 -0.730639 60 65 62 -0.669616 0.739036 -0.073759 0.000000 
-0.193164 -0.082956 -0.647942 73 73 59 -0.844497 0.535167 -0.020531 0.000000 
-0.204360 -0.085713 -0.540554 82 75 49 0.697301 -0.709095 0.104669 0.000000 
-0.192189 -0.083594 -0.670682 73 78 68 -0.593491 0.803949 0.037882 0.000000 
-0.203047 -0.085418 -0.604093 104 97 85 -0.970179 0.008353 -0.242246 0.000000 
-0.202078 -0.091292 -0.522456 92 83 60 0.769947 -0.635671 -0.055710 0.000000 
-0.202927 -0.089157 -0.554147 94 97 89 -0.171260 0.985032 0.019540 0.000000 
-0.198936 -0.082689 -0.601942 69 64 49 0.429239 0.900720 -0.066770 0.000000 
-0.187690 -0.076322 -0.724423 98 94 74 0.996406 -0.059893 -0.059893 0.000000 
-0.203203 -0.089591 -0.514136 96 89 72 0.975694 -0.206891 0.072228 0.000000 
-0.186181 -0.078430 -0.726812 96 94 77 -0.892680 -0.067191 -0.445654 0.000000 
-0.189632 -0.082908 -0.704033 96 98 89 -0.271884 0.954879 -0.119524 0.000000 
-0.201575 -0.088971 -0.578201 99 101 97 -0.416703 0.904010 0.095523 0.000000 
-0.198344 -0.083359 -0.598318 65 64 53 0.954049 0.285043 0.092411 0.000000 
-0.206871 -0.092852 -0.515447 133 123 103 0.442748 0.850014 0.285395 0.000000 
-0.201933 -0.087566 -0.528449 90 88 80 0.602407 0.774086 0.194671 0.000000 
-0.194751 -0.084903 -0.645169 63 66 59 0.556887 -0.830587 0.001355 0.000000 
-0.186781 -0.076115 -0.720244 95 92 73 0.836032 0.330962 0.437623 0.000000 
-0.202174 -0.089908 -0.518891 101 92 68 0.835995 0.410913 0.363681 0.000000 
-0.191574 -0.083204 -0.687075 55 61 54 0.469163 -0.877744 -0.097214 0.000000 
-0.200432 -0.086865 -0.609571 95 94 88 -0.517983 -0.855148 -0.020393 0.000000 
-0.204759 -0.088436 -0.532011 92 82 63 -0.658857 0.748635 0.073850 0.000000 
-0.190158 -0.082547 -0.677680 79 81 68 -0.879072 0.428418 -0.209021 0.000000 
-0.194168 -0.084156 -0.645996 66 69 61 -0.791072 0.611597 0.012425 0.000000 
-0.205678 -0.088055 -0.549614 100 91 71 -0.801111 0.575657 0.163829 0.000000 
-0.189642 -0.082101 -0.717762 67 74 68 -0.613142 0.786264 -0.076462 0.000000 
-0.203088 -0.089897 -0.513805 92 80 57 0.991757 -0.092870 -0.088284 0.000000 
-0.201305 -0.084590 -0.569475 74 70 60 -0.003582 -0.968355 -0.249551 0.000000 
-0.199361 -0.085211 -0.560631 73 67 53 0.828949 0.505982 0.238381 0.000000 
-0.204126 -0.091777 -0.515150 86 78 51 0.534022 -0.554237 0.638468 0.000000 
-0.203309 -0.086286 -0.558633 75 71 59 -0.618487 0.785794 0.001371 0.000000 
-0.187256 -0.080519 -0.749463 77 85 84 -0.668315 0.743657 0.018138 0.000000 
-0.205638 -0.088078 -0.517600 109 90 63 0.798199 -0.549248 -0.247395 0.000000 
-0.189847 -0.077968 -0.684861 99 103 96 0.629943 0.762246 0.148841 0.000000 
-0.192771 -0.081472 -0.647577 112 107 90 0.965588 0.191554 0.175917 0.000000 
-0.199850 -0.087635 -0.555897 53 51 32 0.818159 -0.574511 0.023534 0.000000 
-0.205945 -0.093686 -0.513496 131 130 123 -0.306378 0.755519 -0.579071 0.000000 
-0.191785 -0.077941 -0.684117 95 95 76 0.054346 0.994863 0.085401 0.000000 
-0.200776 -0.088276 -0.544416 64 65 56 0.806549 -0.540279 0.239952 0.000000 
-0.185868 -0.076604 -0.720506 95 96 84 -0.946193 0.220459 -0.236891 0.000000 
-0.198572 -0.083265 -0.596608 70 67 53 0.807171 0.552920 0.206771 0.000000 
-0.203559 -0.090123 -0.529964 103 96 73 -0.159515 -0.971129 -0.177381 0.000000 
-0.202880 -0.084004 -0.615604 124 121 113 0.965056 -0.260528 -0.028132 0.000000 
-0.188896 -0.080309 -0.703715 91 97 86 0.950472 -0.162669 0.264842 0.000000 
-0.204368 -0.090390 -0.527591 92 84 61 -0.195181 -0.978330 -0.069101 0.000000 
-0.198868 -0.085668 -0.585939 79 78 62 0.992713 -0.080552 0.089628 0.000000 
-0.200188 -0.088884 -0.530897 93 89 69 0.976889 -0.095095 0.191426 0.000000 
-0.202579 -0.088710 -0.575413 90 88 69 0.272140 0.882577 0.383402 0.000000 
-0.205333 -0.090551 -0.533967 117 120 118 0.042566 0.971715 -0.232287 0.000000 
-0.189708 -0.078488 -0.684614 90 94 83 0.857540 0.465694 0.218529 0.000000 
-0.203799 -0.089786 -0.539204 89 83 61 -0.057610 0.998216 -0.015712 0.000000 
-0.190827 -0.079481 -0.670871 72 73 57 0.882068 0.421088 0.211283 0.000000 
-0.188690 -0.081455 -0.728325 67 70 65 -0.641751 0.764670 0.058601 0.000000 
-0.192348 -0.082587 -0.654367 82 80 61 -0.807458 0.541907 -0.233128 0.000000 
-0.199340 -0.086414 -0.579290 61 60 46 0.996381 0.011722 0.084186 0.000000 
-0.202553 -0.082933 -0.549292 114 117 116 0.520377 0.825583 0.218222 0.000000 
-0.195918 -0.080870 -0.643039 108 101 82 0.135323 0.987273 0.083548 0.000000 
-0.189587 -0.075706 -0.707817 113 112 98 0.571272 0.819894 0.037712 0.000000 
-0.199604 -0.086058 -0.573219 73 71 55 -0.978493 -0.130218 -0.159982 0.000000 
-0.186736 -0.076458 -0.728042 97 96 78 0.888467 0.241770 0.390095 0.000000 
-0.184558 -0.071533 -0.752133 111 117 115 -0.786089 -0.611725 -0.088635 0.000000 
-0.187542 -0.075915 -0.718154 93 91 73 -0.804034 -0.505891 -0.312416 0.000000 
-0.198982 -0.084193 -0.565627 89 88 72 0.747407 0.648154 0.145872 0.000000 
-0.192898 -0.083458 -0.659040 69 72 63 0.620761 -0.783901 0.012443 0.000000 
-0.182972 -0.077609 -0.763858 85 88 77 -0.810381 0.581702 -0.070033 0.000000 
-0.200587 -0.086618 -0.540515 60 61 53 0.930501 0.365783 -0.019252 0.000000 
-0.202499 -0.090007 -0.539244 86 83 70 -0.032632 0.991346 0.127153 0.000000 
-0.197153 -0.085464 -0.600982 66 59 45 0.931267 0.326151 0.162382 0.000000 
-0.199015 -0.084824 -0.586679 72 72 59 -0.994984 0.045176 -0.089251 0.000000 
-0.197052 -0.084183 -0.608228 71 66 54 0.935166 0.310801 0.169905 0.000000 
-0.188581 -0.078973 -0.708758 87 92 82 0.975774 -0.108143 -0.190183 0.000000 
-0.201031 -0.084125 -0.573340 65 62 50 0.506351 0.862019 -0.023078 0.000000 
-0.193528 -0.083428 -0.687634 67 72 65 0.251146 -0.965849 -0.063724 0.000000 
-0.204930 -0.093441 -0.517878 101 94 79 -0.333454 0.910082 -0.246086 0.000000 
-0.188991 -0.078682 -0.689928 83 83 69 0.996081 0.083458 -0.029265 0.000000 
-0.178512 -0.073217 -0.784652 91 90 75 0.877716 -0.478632 -0.022920 0.000000 
-0.203665 -0.089290 -0.545487 94 91 71 0.090919 0.995830 -0.007487 0.000000 
-0.199382 -0.086903 -0.562255 55 54 39 0.918106 -0.395713 -0.022202 0.000000 
-0.197446 -0.081157 -0.631001 95 92 77 0.149225 0.937787 0.313508 0.000000 
-0.194493 -0.084782 -0.654729 65 68 61 0.537159 -0.842520 0.040252 0.000000 
-0.201718 -0.090785 -0.521563 86 80 68 0.921102 -0.381657 -0.076871 0.000000 
-0.185517 -0.077887 -0.740582 83 87 77 0.914902 -0.392492 0.094362 0.000000 
-0.197453 -0.084274 -0.605933 59 53 37 -0.930728 -0.360410 -0.062049 0.000000 
-0.199827 -0.085354 -0.577792 77 78 67 0.885746 0.460039 0.061796 0.000000 
-0.201566 -0.083742 -0.569461 97 99 92 0.480952 -0.875580 0.045218 0.000000 
-0.194941 -0.079609 -0.658762 90 87 70 0.321775 -0.944482 -0.066439 0.000000 
-0.194147 -0.081965 -0.635260 111 107 95 -0.681368 -0.700078 -0.213610 0.000000 
-0.201450 -0.083272 -0.583619 67 64 49 -0.047301 0.973910 0.221950 0.000000 
-0.202674 -0.082904 -0.514728 108 93 74 -0.300939 -0.169021 0.938545 0.000000 
-0.203992 -0.093192 -0.518679 113 112 107 0.548180 -0.832949 -0.075464 0.000000 
-0.196590 -0.086222 -0.644661 114 110 98 -0.118256 0.990824 0.065443 0.000000 
-0.200757 -0.088119 -0.538210 67 63 47 0.972188 0.075546 0.221684 0.000000 
-0.199055 -0.082063 -0.626316 83 80 66 0.250171 -0.931428 -0.264305 0.000000 
-0.197363 -0.085177 -0.601923 73 69 55 -0.953581 -0.285683 -0.095228 0.000000 
-0.198404 -0.080998 -0.630837 111 110 100 0.330316 -0.926290 -0.181322 0.000000 
-0.205202 -0.090471 -0.534915 120 121 118 -0.341287 0.939499 -0.029399 0.000000 
-0.196529 -0.086579 -0.602437 104 96 78 -0.983703 -0.131886 -0.122207 0.000000 
-0.191579 -0.081555 -0.663399 75 79 68 0.712528 -0.701329 0.020998 0.000000 
-0.198764 -0.086607 -0.567717 53 51 38 0.938965 -0.329907 -0.097503 0.000000 
-0.202155 -0.091172 -0.520517 75 64 39 -0.864139 0.501448 0.042589 0.000000 
-0.200630 -0.083694 -0.576308 86 87 77 0.713960 0.696582 0.070962 0.000000 
-0.201969 -0.087572 -0.528533 88 78 61 -0.386554 -0.890111 -0.241411 0.000000 
-0.201848 -0.089031 -0.524223 86 77 64 -0.884644 -0.463515 -0.050590 0.000000 
-0.205362 -0.090437 -0.545128 117 121 117 0.075903 -0.995536 -0.056102 0.000000 
-0.191335 -0.081316 -0.664939 59 61 48 0.853759 -0.518898 0.042896 0.000000 
-0.204897 -0.092026 -0.520751 88 80 58 -0.146764 -0.918326 -0.367610 0.000000 
-0.195201 -0.084039 -0.629062 65 63 45 0.624017 -0.737762 0.257506 0.000000 
-0.204929 -0.092454 -0.515288 100 94 80 0.625934 -0.742022 0.240020 0.000000 
-0.204527 -0.088557 -0.571434 114 117 116 0.572072 0.713854 -0.403913 0.000000 
-0.188829 -0.081532 -0.736247 101 105 102 0.872392 -0.488806 -0.001332 0.000000 
-0.181352 -0.076123 -0.767204 97 98 85 -0.990305 0.056098 0.127080 0.000000 
-0.201429 -0.085747 -0.538797 81 83 75 -0.530996 -0.845969 -0.048779 0.000000 
-0.196561 -0.085326 -0.611327 90 88 79 0.926750 0.375571 0.008973 0.000000 
-0.190589 -0.082059 -0.683571 79 82 65 -0.937774 0.334824 0.092043 0.000000 
-0.187160 -0.079129 -0.724839 96 96 80 -0.992328 -0.122523 -0.016557 0.000000 
-0.178020 -0.071207 -0.778394 94 94 81 -0.865495 -0.301774 -0.399813 0.000000 
-0.187955 -0.080095 -0.719174 91 92 78 0.938621 -0.260033 0.226659 0.000000 
-0.198141 -0.087700 -0.592018 89 89 80 -0.903980 0.410645 -0.119129 0.000000 
-0.201164 -0.088118 -0.574481 85 83 64 0.612107 -0.760873 0.215400 0.000000 
-0.200172 -0.088800 -0.582159 104 106 98 0.611055 -0.787294 0.082341 0.000000 
-0.184935 -0.076412 -0.742753 99 98 80 -0.992445 -0.120868 0.021069 0.000000 
-0.191733 -0.083890 -0.682028 74 77 68 -0.657648 0.748056 0.088950 0.000000 
-0.202513 -0.089208 -0.579480 114 116 116 -0.252557 -0.962793 -0.096151 0.000000 
-0.199385 -0.086265 -0.555687 53 52 39 0.996331 -0.051178 0.068600 0.000000 
-0.191075 -0.080328 -0.663684 65 67 55 0.945078 0.229735 0.232486 0.000000 
-0.189649 -0.079315 -0.695710 96 96 74 -0.975390 -0.164448 -0.146873 0.000000 
-0.206437 -0.090573 -0.521673 105 94 72 -0.696932 -0.614940 -0.368964 0.000000 
-0.204058 -0.085966 -0.586188 72 70 54 -0.988729 -0.137613 0.058977 0.000000 
-0.197974 -0.086018 -0.589703 68 63 49 -0.995632 -0.084153 0.040437 0.000000 
-0.200184 -0.090979 -0.514236 92 83 65 0.563220 0.118496 0.817766 0.000000 
-0.206163 -0.089730 -0.538135 104 93 71 -0.203413 -0.939572 -0.275368 0.000000 
-0.189151 -0.080976 -0.708656 79 83 70 0.922009 -0.387064 -0.009001 0.000000 
-0.196281 -0.084523 -0.627279 70 67 49 -0.408619 0.886571 0.216848 0.000000 
-0.205323 -0.089824 -0.528095 96 88 65 0.617473 0.777394 0.119941 0.000000 
-0.201577 -0.089512 -0.515318 111 96 75 -0.659538 0.322477 -0.678984 0.000000 
-0.201448 -0.089288 -0.551590 88 91 84 -0.177239 0.962341 0.206122 0.000000 
-0.199212 -0.085830 -0.571755 68 69 62 -0.864160 -0.432839 -0.256666 0.000000 
-0.200423 -0.086327 -0.612336 90 85 69 -0.412453 -0.910559 -0.027673 0.000000 
-0.203100 -0.090939 -0.514448 95 86 63 -0.424794 0.863292 -0.272538 0.000000 
-0.189546 -0.081256 -0.695227 82 86 72 0.922741 -0.190766 0.334900 0.000000 
-0.203233 -0.086504 -0.564216 74 70 57 -0.758898 0.636157 -0.139206 0.000000 
-0.198636 -0.080794 -0.612032 115 113 101 -0.294106 0.952281 0.081624 0.000000 
-0.184997 -0.073318 -0.749821 109 112 107 0.805600 0.545829 0.230392 0.000000 
-0.182925 -0.074929 -0.761180 100 99 81 -0.750535 -0.641366 -0.159204 0.000000 
-0.197555 -0.084740 -0.599616 65 60 48 -0.950082 -0.185679 -0.250735 0.000000 
-0.200743 -0.086572 -0.541056 72 72 60 0.956221 0.292621 -0.003673 0.000000 
-0.209551 -0.091202 -0.516512 102 93 73 -0.747752 -0.531771 -0.397601 0.000000 
-0.208638 -0.089365 -0.520195 105 98 76 0.801428 -0.597225 -0.032169 0.000000 
-0.188160 -0.080094 -0.713647 84 90 82 -0.994629 -0.011905 -0.102818 0.000000 
-0.201991 -0.084324 -0.569388 96 96 87 -0.463449 0.884518 0.053317 0.000000 
-0.188704 -0.075680 -0.716404 107 104 85 -0.809085 -0.579578 -0.097323 0.000000 
-0.202586 -0.085242 -0.543982 105 106 96 0.541234 -0.840871 0.001350 0.000000 
-0.206078 -0.092124 -0.520483 120 119 113 -0.656110 -0.665927 -0.355052 0.000000 
-0.183915 -0.073566 -0.761354 108 110 99 0.809289 0.521263 0.270806 0.000000 
-0.200566 -0.088689 -0.531986 61 59 50 -0.990168 0.021354 0.138241 0.000000 
-0.191292 -0.077465 -0.692240 85 83 65 0.153316 0.988161 -0.005595 0.000000 
-0.205931 -0.088439 -0.551260 100 93 75 -0.970554 0.200232 -0.133913 0.000000 
-0.204897 -0.092026 -0.520751 88 80 58 0.146764 0.918326 0.367610 0.000000 
-0.201778 -0.083975 -0.577904 67 66 52 -0.201515 0.969068 0.142472 0.000000 
-0.205689 -0.089106 -0.533940 99 86 63 -0.191550 0.834070 -0.517335 0.000000 
-0.194530 -0.084260 -0.628936 89 88 77 0.725302 -0.684766 0.070938 0.000000 
-0.194551 -0.084733 -0.643299 59 58 45 0.749069 -0.660607 0.049938 0.000000 
-0.204681 -0.087434 -0.562608 89 84 71 -0.969369 0.245605 0.001186 0.000000 
-0.203574 -0.085743 -0.576156 78 74 57 -0.948357 0.297602 -0.109782 0.000000 
-0.201927 -0.090805 -0.523357 79 77 69 -0.804334 0.593906 0.017997 0.000000 
-0.200116 -0.086528 -0.545193 56 56 47 -0.975473 -0.057095 -0.212587 0.000000 
-0.185864 -0.078086 -0.731873 96 101 91 -0.994820 0.100673 0.014073 0.000000 
-0.201491 -0.089399 -0.546961 85 88 80 0.357342 -0.930160 -0.084317 0.000000 
-0.189434 -0.078725 -0.698465 94 96 78 -0.974527 -0.184846 -0.127003 0.000000 
-0.202236 -0.084073 -0.574034 65 62 50 -0.123362 0.992356 -0.003275 0.000000 
-0.202458 -0.091992 -0.518413 106 96 71 0.816511 -0.522133 0.246348 0.000000 
-0.198934 -0.086438 -0.560302 79 76 58 -0.970549 0.240543 -0.013164 0.000000 
-0.205144 -0.087138 -0.552244 110 109 100 -0.516796 0.844735 0.139081 0.000000 
-0.184956 -0.076705 -0.739029 91 96 87 0.982155 -0.132987 -0.132987 0.000000 
-0.201648 -0.089594 -0.546274 92 96 89 -0.301421 0.950833 0.071151 0.000000 
-0.202665 -0.085048 -0.551236 101 100 92 -0.584339 0.788782 -0.190711 0.000000 
-0.189521 -0.080284 -0.685327 78 84 73 -0.962264 0.221255 -0.158413 0.000000 
-0.197731 -0.080576 -0.645472 118 114 101 -0.126009 0.991041 0.044273 0.000000 
-0.186852 -0.079267 -0.722547 95 95 82 -0.950265 -0.114983 -0.289441 0.000000 
-0.199099 -0.084850 -0.583121 65 67 58 0.919974 0.372140 0.123124 0.000000 
-0.205290 -0.088620 -0.563210 102 105 100 -0.970129 -0.230390 -0.075966 0.000000 
-0.202030 -0.088954 -0.567713 84 80 61 -0.730365 0.682884 -0.015361 0.000000 
-0.206887 -0.093428 -0.514931 134 126 107 0.221951 0.895152 0.386576 0.000000 
-0.200332 -0.088377 -0.533632 52 48 28 -0.989223 0.135051 0.056560 0.000000 
-0.203365 -0.087381 -0.533584 85 75 56 0.695245 -0.717901 -0.035399 0.000000 
-0.202236 -0.084073 -0.574034 65 62 50 0.123362 -0.992356 0.003275 0.000000 
-0.199551 -0.084136 -0.583327 65 66 51 -0.827346 -0.406554 -0.387571 0.000000 
-0.197899 -0.086423 -0.591932 69 62 47 -0.976207 0.123428 -0.178286 0.000000 
-0.197312 -0.083896 -0.604962 71 66 54 0.872121 0.471378 -0.131179 0.000000 
-0.199142 -0.086324 -0.579391 60 58 43 0.996419 0.009571 0.084010 0.000000 
-0.192007 -0.084227 -0.680109 90 92 83 0.513295 -0.858186 -0.006736 0.000000 
-0.196727 -0.080328 -0.646004 118 113 100 0.199155 -0.979079 0.041739 0.000000 
-0.201413 -0.085549 -0.542883 82 81 69 0.349541 0.913410 0.208574 0.000000 
-0.186636 -0.080812 -0.721919 100 99 89 0.876610 -0.418076 0.238258 0.000000 
-0.188247 -0.079984 -0.735062 71 76 68 0.756667 -0.653549 -0.018115 0.000000 
-0.200096 -0.087677 -0.563128 68 70 63 -0.749900 0.657069 0.076876 0.000000 
-0.199611 -0.085991 -0.625204 87 90 83 0.093833 0.995489 -0.014021 0.000000 
-0.186813 -0.079719 -0.745858 64 72 68 0.916683 -0.399513 0.009050 0.000000 
-0.199849 -0.084647 -0.566994 84 84 77 0.465751 0.884794 0.014680 0.000000 
-0.199085 -0.087568 -0.576128 96 97 90 0.893385 -0.364192 0.263110 0.000000 
-0.198482 -0.089529 -0.589649 88 85 74 -0.467212 -0.868517 0.165502 0.000000 
-0.195393 -0.085216 -0.630993 71 70 58 -0.458979 0.842235 -0.282805 0.000000 
-0.207666 -0.093187 -0.517125 95 84 59 0.500246 0.797516 0.337226 0.000000 
-0.197406 -0.082531 -0.614378 67 61 44 0.917359 0.374460 0.135028 0.000000 
-0.196296 -0.083408 -0.620243 92 87 71 -0.925551 -0.348296 -0.148477 0.000000 
-0.198916 -0.084585 -0.574850 76 72 57 -0.694416 -0.520394 0.496968 0.000000 
-0.192235 -0.083959 -0.683638 70 75 68 -0.550473 0.833413 0.049024 0.000000 
-0.195305 -0.085322 -0.642817 63 65 57 -0.400259 0.913133 -0.077338 0.000000 
-0.188294 -0.077753 -0.707224 91 95 86 -0.974756 -0.221264 -0.029900 0.000000 
-0.191957 -0.079081 -0.661898 90 88 71 0.691601 0.722215 0.009741 0.000000 
-0.201596 -0.084942 -0.553037 84 84 75 -0.020418 -0.996181 0.084896 0.000000 
-0.187210 -0.079944 -0.721135 86 92 84 -0.922371 0.125464 -0.365364 0.000000 
-0.201319 -0.087645 -0.518031 109 98 81 -0.666600 0.268867 0.695237 0.000000 
-0.189557 -0.080545 -0.693917 95 95 76 0.893371 -0.447361 0.041898 0.000000 
-0.199306 -0.085647 -0.568922 74 71 59 -0.810559 -0.420468 0.407678 0.000000 
-0.190880 -0.082936 -0.692712 57 62 52 0.819076 -0.571808 -0.046363 0.000000 
-0.192453 -0.082187 -0.662463 75 76 63 0.717610 -0.688018 -0.108011 0.000000 
-0.198235 -0.087800 -0.576551 79 77 66 -0.673303 0.721939 0.159586 0.000000 
-0.186549 -0.075484 -0.719848 104 103 97 -0.703054 -0.577331 -0.415215 0.000000 
-0.208712 -0.089616 -0.518548 101 96 78 -0.888292 0.421538 0.182326 0.000000 
-0.199504 -0.087776 -0.568069 84 85 75 0.618690 -0.780970 -0.085487 0.000000 
-0.200536 -0.089108 -0.551375 90 91 82 0.495059 -0.864589 -0.086036 0.000000 
-0.188446 -0.078095 -0.713404 87 91 81 -0.977569 0.094683 -0.188136 0.000000 
-0.199866 -0.086845 -0.614837 111 114 110 -0.293380 -0.947123 -0.129945 0.000000 
-0.200393 -0.088575 -0.553301 75 72 52 0.722486 -0.680775 -0.120663 0.000000 
-0.202021 -0.084022 -0.564277 114 114 108 0.445159 -0.891705 0.081821 0.000000 
-0.205436 -0.089193 -0.558533 106 103 83 -0.656299 -0.721773 -0.219806 0.000000 
-0.187346 -0.074857 -0.723757 110 106 92 0.989948 -0.019059 0.140140 0.000000 
-0.200647 -0.088091 -0.564068 83 84 73 -0.641409 0.755039 0.136056 0.000000 
-0.202825 -0.083315 -0.584097 95 94 80 0.580200 -0.813950 -0.029219 0.000000 
-0.192936 -0.081032 -0.647424 96 90 75 -0.869773 -0.438629 -0.226051 0.000000 
-0.186913 -0.078807 -0.724630 88 89 75 0.970365 0.213809 -0.112598 0.000000 
-0.199487 -0.086958 -0.563927 54 54 43 -0.883684 0.449694 0.129912 0.000000 
-0.195802 -0.080418 -0.656265 86 83 67 -0.366786 0.928221 0.062235 0.000000 
-0.197807 -0.081339 -0.625916 97 94 80 0.070782 -0.996392 0.046825 0.000000 
-0.183777 -0.076258 -0.752168 105 102 83 -0.980677 0.184102 0.066181 0.000000 
-0.200248 -0.087547 -0.571831 88 85 67 0.496910 -0.854568 0.150979 0.000000 
-0.198894 -0.087232 -0.567826 88 87 78 0.837389 -0.517957 -0.174643 0.000000 
-0.199417 -0.083136 -0.586164 66 61 43 -0.510937 -0.859609 -0.004023 0.000000 
-0.190633 -0.081983 -0.693724 67 72 61 0.840786 -0.518657 0.155154 0.000000 
-0.190228 -0.081285 -0.693750 79 84 72 0.874029 -0.471947 0.115492 0.000000 
-0.200479 -0.088763 -0.534457 78 78 70 0.922139 -0.374576 -0.096709 0.000000 
-0.200547 -0.088772 -0.533225 85 76 52 -0.975719 0.194648 0.100423 0.000000 
-0.191594 -0.076649 -0.696812 100 96 73 -0.010923 0.999916 0.006951 0.000000 
-0.195901 -0.083041 -0.616739 92 86 66 0.898053 0.368922 0.239579 0.000000 
-0.205871 -0.089338 -0.539435 100 97 77 -0.296474 -0.943573 0.147560 0.000000 
-0.202295 -0.086976 -0.528970 100 99 94 -0.212247 -0.969728 -0.120739 0.000000 
-0.197387 -0.087365 -0.605182 101 96 84 0.464780 -0.880414 -0.094079 0.000000 
-0.202558 -0.090800 -0.517703 113 94 72 -0.599599 0.793113 -0.107019 0.000000 
-0.194573 -0.082665 -0.630256 108 103 87 0.685925 0.689064 0.233874 0.000000 
-0.199823 -0.088280 -0.579313 89 90 83 -0.755473 0.642226 0.129637 0.000000 
-0.188403 -0.077083 -0.704318 105 98 76 -0.995462 -0.090497 0.029439 0.000000 
-0.200748 -0.089089 -0.535564 65 66 57 0.968169 -0.231601 -0.094919 0.000000 
-0.193869 -0.083872 -0.654250 68 70 58 0.752227 -0.653288 0.085844 0.000000 
-0.189468 -0.078015 -0.698829 88 88 65 -0.952679 -0.245896 -0.178711 0.000000 
-0.190798 -0.079529 -0.671704 70 72 57 -0.912027 -0.402165 -0.080433 0.000000 
-0.204712 -0.087697 -0.516397 109 89 63 -0.402092 0.190159 0.895635 0.000000 
-0.206105 -0.088542 -0.541621 99 91 68 0.755099 -0.650747 0.079713 0.000000 
-0.193060 -0.082718 -0.646706 77 79 68 -0.922103 0.331048 0.200334 0.000000 
-0.180148 -0.074797 -0.790012 86 86 73 -0.870015 0.490672 0.048105 0.000000 
-0.198896 -0.083238 -0.593633 74 72 61 0.535132 0.839282 0.096123 0.000000 
-0.201454 -0.089898 -0.532208 69 64 48 0.391046 -0.917816 -0.068534 0.000000 
-0.196016 -0.080759 -0.663497 86 84 67 -0.646373 0.759163 0.076639 0.000000 
-0.190175 -0.080917 -0.683948 75 81 66 0.894515 -0.398373 0.202835 0.000000 
-0.199310 -0.082220 -0.612645 86 82 67 0.413214 -0.910626 -0.003886 0.000000 
-0.190103 -0.075535 -0.728294 108 106 92 0.340412 0.907279 0.246909 0.000000 
-0.185971 -0.077840 -0.727152 95 94 78 0.811267 0.321028 0.488658 0.000000 
-0.202551 -0.091690 -0.519874 80 73 58 -0.656395 0.743117 -0.130083 0.000000 
-0.185759 -0.074689 -0.743177 106 103 87 -0.813714 -0.581225 0.006838 0.000000 
-0.188701 -0.078104 -0.712540 87 91 81 -0.960180 -0.043701 -0.275943 0.000000 
-0.187928 -0.078235 -0.716080 83 87 79 0.932485 -0.037611 0.359246 0.000000 
-0.206524 -0.088991 -0.539044 98 92 71 0.328686 0.917162 0.225343 0.000000 
-0.200431 -0.088571 -0.547300 58 55 38 0.608965 -0.793167 0.006873 0.000000 
-0.193546 -0.079638 -0.682274 93 94 79 0.361432 -0.886334 -0.289446 0.000000 
-0.198306 -0.086607 -0.589407 91 83 68 0.989640 -0.117454 0.082567 0.000000 
-0.200921 -0.089276 -0.528558 96 90 69 0.901967 -0.339893 0.266323 0.000000 
-0.197276 -0.087401 -0.612117 115 114 105 -0.409598 0.912108 0.017012 0.000000 
-0.203776 -0.086878 -0.553692 77 70 54 -0.526971 0.830241 0.181662 0.000000 
-0.202191 -0.090321 -0.564588 121 123 118 0.614082 -0.788330 0.037941 0.000000 
-0.202296 -0.091615 -0.519664 85 81 72 -0.700649 0.709352 -0.076883 0.000000 
-0.199195 -0.087128 -0.580443 67 62 46 -0.893154 0.415454 -0.172261 0.000000 
-0.200812 -0.087963 -0.572450 92 90 72 0.410842 -0.899872 0.146425 0.000000 
-0.200850 -0.087877 -0.537414 54 55 47 -0.964467 -0.135932 -0.226553 0.000000 
-0.202807 -0.090185 -0.514367 100 90 66 -0.833859 -0.162015 -0.527665 0.000000 
-0.206154 -0.092967 -0.513192 133 122 102 -0.173330 -0.391067 0.903894 0.000000 
-0.200222 -0.088363 -0.546096 61 59 41 -0.779700 0.609094 -0.145165 0.000000 
-0.188419 -0.082017 -0.731975 97 100 98 0.560654 -0.828022 0.006821 0.000000 
-0.199662 -0.083039 -0.589829 84 82 70 -0.364682 -0.923403 0.119726 0.000000 
-0.195858 -0.085332 -0.623017 88 90 81 -0.857075 0.514788 0.020374 0.000000 
-0.205058 -0.089224 -0.557489 109 106 83 0.397537 0.915009 0.068727 0.000000 
-0.205738 -0.090012 -0.537567 107 111 106 0.222048 0.974873 -0.017811 0.000000 
-0.187768 -0.081183 -0.736816 92 96 92 -0.805971 0.579888 -0.118914 0.000000 
-0.202155 -0.089354 -0.549693 109 106 85 -0.021312 -0.999624 0.017252 0.000000 
-0.193561 -0.078423 -0.675913 128 126 114 -0.359858 0.932535 0.029666 0.000000 
-0.198399 -0.084141 -0.593065 64 60 46 -0.915334 -0.402643 0.006473 0.000000 
-0.190780 -0.081206 -0.677140 77 83 69 -0.970491 0.170509 -0.170509 0.000000 
-0.201917 -0.084940 -0.556971 71 65 53 0.215590 -0.938860 0.268444 0.000000 
-0.205154 -0.093004 -0.516801 105 97 73 -0.514470 0.824688 -0.234967 0.000000 
-0.203275 -0.089322 -0.515323 118 111 96 -0.455876 -0.888618 0.050350 0.000000 
-0.201772 -0.088817 -0.574483 102 99 80 -0.434311 0.870124 -0.232935 0.000000 
-0.200629 -0.089087 -0.534216 71 71 63 0.782031 -0.622547 -0.029379 0.000000 
-0.198580 -0.086430 -0.560509 77 72 53 -0.913804 0.360675 0.186752 0.000000 
-0.199871 -0.086670 -0.548356 70 69 60 -0.951816 -0.298330 0.071031 0.000000 
-0.194890 -0.082670 -0.629391 102 97 81 0.738752 0.657172 0.149563 0.000000 
-0.186245 -0.077025 -0.730039 97 96 76 -0.978895 -0.201012 -0.036872 0.000000 
-0.205887 -0.089626 -0.516105 109 98 74 0.764835 -0.440558 -0.470038 0.000000 
-0.182025 -0.076098 -0.772113 91 91 78 0.939380 -0.339112 0.050672 0.000000 
-0.204801 -0.088537 -0.513468 99 88 63 0.519949 0.839917 -0.155540 0.000000 
-0.199105 -0.082270 -0.600002 92 87 73 -0.433929 -0.900830 0.014508 0.000000 
-0.195985 -0.080554 -0.650732 109 104 87 0.249551 -0.968355 0.003582 0.000000 
-0.206548 -0.089346 -0.515273 116 106 85 0.362133 0.252754 0.897204 0.000000 
-0.193632 -0.083802 -0.654862 78 83 71 -0.759163 0.646373 -0.076639 0.000000 
-0.204191 -0.090359 -0.539286 112 115 112 -0.108606 0.993125 -0.043666 0.000000 
-0.186143 -0.078825 -0.732939 95 95 81 0.907842 -0.403021 -0.115746 0.000000 
-0.204753 -0.089736 -0.515248 79 63 38 0.684192 0.536982 -0.493488 0.000000 
-0.203151 -0.089107 -0.555518 90 87 72 0.318455 -0.947931 -0.003717 0.000000 
-0.178387 -0.075103 -0.776629 106 106 97 0.495115 0.048270 0.867486 0.000000 
-0.202389 -0.084997 -0.587610 57 54 39 -0.695574 0.718057 -0.023888 0.000000 
-0.200089 -0.087896 -0.554826 57 54 37 0.777680 -0.618307 -0.113627 0.000000 
-0.197554 -0.083905 -0.604185 67 65 55 -0.925489 -0.372600 0.068110 0.000000 
-0.200884 -0.087757 -0.517670 110 100 84 -0.474733 -0.100615 0.874360 0.000000 
-0.196347 -0.080616 -0.636554 111 108 100 -0.254765 -0.957018 -0.138603 0.000000 
-0.192858 -0.083669 -0.659651 74 78 68 0.706796 -0.706796 -0.029626 0.000000 
-0.205877 -0.089998 -0.546323 112 117 115 -0.044014 -0.997285 0.059043 0.000000 
-0.191049 -0.082000 -0.698286 55 59 47 -0.617321 0.786564 0.015260 0.000000 
-0.189345 -0.081040 -0.685351 101 96 73 0.820840 -0.507400 0.262234 0.000000 
-0.202024 -0.089510 -0.519789 83 68 42 0.905609 -0.049788 0.421182 0.000000 
-0.192652 -0.082406 -0.663205 73 75 61 0.702227 -0.702227 0.117285 0.000000 
-0.197369 -0.080544 -0.614004 123 119 109 -0.957350 0.201618 0.206958 0.000000 
-0.193661 -0.083244 -0.631104 107 102 89 -0.956605 -0.207376 -0.204700 0.000000 
-0.203845 -0.085478 -0.593241 83 81 65 -0.959055 0.283219 0.001216 0.000000 
-0.200113 -0.088577 -0.585266 91 90 80 0.224303 -0.973595 -0.042436 0.000000 
-0.200566 -0.088023 -0.564559 89 86 68 -0.633552 0.755097 0.168643 0.000000 
-0.200176 -0.086419 -0.613049 91 86 71 0.368523 0.929597 0.006376 0.000000 
-0.183191 -0.074897 -0.760917 99 100 83 -0.840575 -0.534130 -0.090215 0.000000 
-0.195577 -0.085814 -0.633838 95 93 79 0.276299 -0.954605 -0.111305 0.000000 
-0.185329 -0.076482 -0.739927 96 95 76 0.992995 -0.046003 -0.108837 0.000000 
-0.208370 -0.090856 -0.519822 100 91 69 -0.540877 -0.821108 0.182301 0.000000 
-0.202812 -0.087639 -0.524526 125 114 97 -0.651911 -0.755526 -0.064759 0.000000 
-0.197240 -0.085170 -0.643789 70 70 59 -0.049402 0.995733 0.077946 0.000000 
-0.201518 -0.089355 -0.547901 80 78 61 -0.377734 0.925513 0.027259 0.000000 
-0.190673 -0.078486 -0.678451 86 85 65 -0.853402 -0.503288 -0.135669 0.000000 
-0.184974 -0.080403 -0.755275 89 92 84 -0.803260 0.595161 -0.023584 0.000000 
-0.198513 -0.085143 -0.586121 64 60 46 0.999071 0.009241 0.042099 0.000000 
-0.204762 -0.089919 -0.544640 100 103 97 -0.247332 -0.931383 -0.267119 0.000000 
-0.186272 -0.074050 -0.734162 106 110 105 -0.676694 -0.710605 -0.192680 0.000000 
-0.187917 -0.079525 -0.735166 70 76 69 0.764697 -0.642232 0.052689 0.000000 
-0.195201 -0.084039 -0.629062 65 63 45 -0.624017 0.737762 -0.257506 0.000000 
-0.185462 -0.077708 -0.728851 99 100 86 -0.949165 -0.253925 -0.186031 0.000000 
-0.182161 -0.074145 -0.764354 103 101 82 -0.841502 -0.484131 -0.239775 0.000000 
-0.203520 -0.090582 -0.513784 85 73 48 0.701816 -0.710392 0.052886 0.000000 
-0.189539 -0.075358 -0.726690 107 102 83 0.285932 -0.360784 -0.887737 0.000000 
-0.199513 -0.088972 -0.516364 149 131 104 -0.919940 0.212513 0.329467 0.000000 
-0.188928 -0.079037 -0.700910 93 96 86 -0.998779 0.028120 0.040618 0.000000 
-0.199379 -0.088540 -0.594476 102 102 96 0.405362 -0.910357 -0.083256 0.000000 
-0.199186 -0.086168 -0.572866 69 67 55 -0.993250 -0.108375 0.041339 0.000000 
-0.199487 -0.086079 -0.564502 78 78 70 -0.959953 0.151433 0.235709 0.000000 
-0.199468 -0.087556 -0.548186 74 71 53 0.979329 -0.201039 -0.022338 0.000000 
-0.199885 -0.085318 -0.551787 78 79 72 0.711377 0.696709 -0.092406 0.000000 
-0.199403 -0.087445 -0.578378 75 75 63 0.947413 -0.319954 0.006225 0.000000 
-0.200856 -0.088587 -0.535784 62 62 52 0.967884 -0.155944 -0.197185 0.000000 
-0.202040 -0.088269 -0.569842 102 107 102 0.828792 -0.557653 -0.046122 0.000000 
-0.198316 -0.081344 -0.628934 113 108 93 0.491704 -0.869727 -0.042459 0.000000 
-0.188602 -0.077370 -0.710522 87 91 81 -0.992841 0.107060 0.052967 0.000000 
-0.201530 -0.089771 -0.543131 99 100 90 0.607852 -0.789774 -0.082298 0.000000 
-0.189672 -0.081518 -0.700413 69 76 66 0.883633 -0.463251 0.067759 0.000000 
-0.199520 -0.085030 -0.577443 65 62 48 0.838757 0.529511 0.126908 0.000000 
-0.199012 -0.088002 -0.597120 95 89 72 -0.557138 0.826397 0.081637 0.000000 
-0.193798 -0.083635 -0.640585 60 57 40 -0.707614 0.695697 0.123646 0.000000 
-0.201406 -0.084526 -0.559843 80 76 65 0.209301 -0.976335 -0.054442 0.000000 
-0.197780 -0.086902 -0.591707 88 84 66 0.962919 -0.200991 0.179973 0.000000 
-0.192756 -0.082245 -0.648371 94 91 73 0.971163 -0.237074 -0.025272 0.000000 
-0.199311 -0.086601 -0.554188 49 47 32 0.977283 -0.184090 0.105018 0.000000 
-0.200923 -0.092054 -0.516246 112 96 78 0.470523 0.737979 0.483731 0.000000 
-0.199640 -0.087271 -0.553401 58 55 39 0.956363 -0.276398 -0.094728 0.000000 
-0.206408 -0.089474 -0.536510 112 115 111 0.476924 0.873182 -0.100480 0.000000 
-0.196203 -0.085933 -0.618626 98 98 87 0.963797 -0.266168 -0.015800 0.000000 
-0.194141 -0.083489 -0.685877 78 85 81 0.338795 0.940819 0.008816 0.000000 
-0.187928 -0.078235 -0.716080 83 87 79 -0.932485 0.037611 -0.359246 0.000000 
-0.200875 -0.089759 -0.544826 97 98 91 -0.609142 0.781906 -0.132552 0.000000 
-0.198033 -0.081745 -0.608316 92 93 89 0.817202 0.519473 0.249657 0.000000 
-0.189626 -0.079116 -0.695827 97 96 74 -0.970932 -0.157345 -0.180371 0.000000 
-0.186673 -0.076028 -0.722164 95 91 74 0.962379 -0.003623 -0.271688 0.000000 
-0.196712 -0.086405 -0.604833 92 87 71 0.993810 0.014182 0.110181 0.000000 
-0.203700 -0.088637 -0.515050 78 66 41 -0.358426 -0.916608 -0.177088 0.000000 
-0.204287 -0.085143 -0.575591 80 72 45 0.903721 -0.427382 0.025140 0.000000 
-0.201907 -0.085138 -0.555584 67 63 52 -0.375998 0.926612 -0.003824 0.000000 
-0.202209 -0.088845 -0.554701 84 79 59 0.217529 -0.966652 -0.135151 0.000000 
-0.202407 -0.087429 -0.527540 95 93 86 -0.362201 -0.926530 -0.101742 0.000000 
-0.196428 -0.080800 -0.637836 105 98 79 -0.381903 -0.918483 0.102662 0.000000 
-0.202828 -0.091961 -0.518129 100 91 63 -0.915642 0.390072 -0.097176 0.000000 
-0.190756 -0.083067 -0.685610 78 79 64 0.751462 -0.651463 0.104411 0.000000 
-0.189345 -0.077787 -0.692644 97 102 94 0.699361 0.710944 -0.073846 0.000000 
-0.186385 -0.076492 -0.720451 94 97 91 0.906368 -0.104101 0.409462 0.000000 
-0.188698 -0.075999 -0.711785 91 90 74 0.790757 0.541377 0.285683 0.000000 
-0.202454 -0.083570 -0.556493 109 115 114 -0.488912 0.834389 0.254481 0.000000 
-0.204029 -0.089306 -0.552100 114 110 89 -0.160600 0.977298 0.138191 0.000000 
-0.186441 -0.079843 -0.759046 86 94 93 0.661530 -0.749918 0.001381 0.000000 
-0.193203 -0.080817 -0.643357 123 122 118 0.690279 0.696456 0.196120 0.000000 
-0.198961 -0.086262 -0.583123 71 74 67 -0.997448 -0.024484 -0.067064 0.000000 
-0.197073 -0.085187 -0.634108 69 68 54 -0.136218 0.988454 0.066363 0.000000 
-0.194581 -0.083182 -0.628242 109 104 87 -0.870070 -0.476022 -0.127994 0.000000 
-0.200189 -0.085104 -0.575974 71 71 59 -0.857920 -0.500333 -0.116792 0.000000 
-0.205917 -0.092028 -0.549732 103 97 81 -0.063092 0.995081 0.076374 0.000000 
-0.185716 -0.078258 -0.730081 92 98 91 -0.970784 0.213345 0.109829 0.000000 
-0.193506 -0.084075 -0.659703 60 64 57 0.591318 -0.806343 0.012405 0.000000 
-0.200135 -0.085647 -0.576067 70 70 58 -0.934512 -0.354470 0.032225 0.000000 
-0.194830 -0.084336 -0.633656 57 54 38 0.648325 -0.754175 -0.104379 0.000000 
-0.206256 -0.092466 -0.512614 130 127 119 -0.158520 -0.514077 0.842969 0.000000 
-0.202712 -0.089181 -0.570286 92 90 74 -0.994991 0.005367 0.099821 0.000000 
-0.196492 -0.086551 -0.610129 101 99 91 -0.970860 0.232563 0.057833 0.000000 
-0.188068 -0.078642 -0.713595 81 81 65 0.970837 0.117716 0.208850 0.000000 
-0.184177 -0.078315 -0.767161 65 72 68 0.782598 -0.622490 -0.006901 0.000000 
-0.189737 -0.080415 -0.683888 93 92 71 -0.937876 0.195333 -0.286765 0.000000 
-0.201896 -0.084370 -0.600602 73 68 54 0.836064 -0.524211 0.161867 0.000000 
-0.199760 -0.088557 -0.576423 102 102 95 -0.646405 0.748865 -0.146157 0.000000 
-0.181691 -0.076356 -0.763013 95 96 82 0.970496 -0.227986 0.078487 0.000000 
-0.188449 -0.073869 -0.743995 128 126 115 0.620759 0.764129 0.175399 0.000000 
-0.199571 -0.088082 -0.550694 84 79 59 -0.909754 0.397060 -0.121208 0.000000 
-0.200494 -0.084184 -0.561694 97 97 90 0.302735 0.951635 0.052372 0.000000 
-0.201455 -0.088701 -0.568507 100 101 90 -0.815878 0.577625 0.026319 0.000000 
-0.202568 -0.087269 -0.524086 100 94 81 0.598464 0.801148 -0.001369 0.000000 
-0.201065 -0.083435 -0.594752 64 59 45 0.240179 -0.964570 -0.109172 0.000000 
-0.201708 -0.090365 -0.524487 75 73 65 -0.862661 0.498395 -0.086125 0.000000 
-0.195639 -0.079458 -0.657754 123 119 103 -0.352424 0.930345 0.101271 0.000000 
-0.198581 -0.082536 -0.601589 79 79 69 -0.658597 -0.752485 -0.004142 0.000000 
-0.198512 -0.083507 -0.595399 66 61 50 -0.726984 -0.679987 -0.095462 0.000000 
-0.199163 -0.085352 -0.580621 67 67 54 -0.940073 -0.287665 -0.183060 0.000000 
-0.201412 -0.090041 -0.531013 97 90 67 0.517259 -0.855828 -0.001344 0.000000 
-0.198440 -0.086797 -0.573322 79 76 64 0.994502 -0.056797 -0.087979 0.000000 
-0.190490 -0.082648 -0.682572 76 77 61 0.834678 -0.550533 0.015027 0.000000 
-0.196651 -0.080820 -0.663933 112 109 94 0.690228 -0.723559 0.006944 0.000000 
-0.189810 -0.078432 -0.685750 96 95 75 -0.786144 -0.615552 -0.055442 0.000000 
-0.191325 -0.082993 -0.685619 57 63 53 -0.677763 0.730235 -0.085996 0.000000 
-0.203074 -0.091524 -0.521946 90 84 62 -0.414740 0.831058 0.370585 0.000000 
-0.202081 -0.086236 -0.532472 98 98 90 0.069134 -0.978790 -0.192847 0.000000 
-0.201507 -0.086068 -0.534231 90 90 81 -0.712942 -0.685811 -0.146206 0.000000 
-0.203937 -0.079873 -0.515194 113 109 98 0.173302 -0.194151 0.965542 0.000000 
-0.192078 -0.083606 -0.684890 50 56 48 0.590272 -0.802016 -0.091369 0.000000 
-0.203558 -0.089645 -0.541626 89 84 64 0.161033 -0.979720 0.119238 0.000000 
-0.202590 -0.084436 -0.605727 111 111 103 0.952269 -0.236379 0.193155 0.000000 
-0.200866 -0.082838 -0.592640 74 67 45 -0.280976 0.959696 -0.006082 0.000000 
-0.202158 -0.091848 -0.515807 136 124 105 -0.644166 -0.673670 -0.362241 0.000000 
-0.201994 -0.091855 -0.519625 109 106 96 -0.889719 0.453716 -0.050413 0.000000 
-0.199440 -0.087108 -0.568617 53 51 39 0.940577 -0.289725 -0.177130 0.000000 
-0.196887 -0.081273 -0.661807 88 85 70 -0.807895 0.573680 -0.134896 0.000000 
-0.201523 -0.085813 -0.613009 88 84 68 -0.754666 -0.649159 0.095249 0.000000 
-0.199352 -0.087795 -0.573315 84 82 70 -0.595859 0.799744 -0.073226 0.000000 
-0.199602 -0.087260 -0.576579 68 66 54 -0.907521 0.375377 -0.188408 0.000000 
-0.189692 -0.074971 -0.728980 118 114 102 -0.160726 -0.938255 -0.306341 0.000000 
-0.186641 -0.074449 -0.731627 103 107 105 -0.661634 -0.741563 -0.111012 0.000000 
-0.197744 -0.081225 -0.624864 100 96 82 -0.167893 -0.985656 0.017132 0.000000 
-0.194293 -0.084402 -0.647329 73 76 66 -0.650967 0.758285 -0.035302 0.000000 
-0.201665 -0.087383 -0.530345 83 82 72 0.438536 0.801573 0.406409 0.000000 
-0.203308 -0.087470 -0.528746 94 83 68 -0.199626 0.949242 0.243082 0.000000 
-0.199383 -0.086682 -0.559839 63 61 48 0.913257 -0.403657 0.054983 0.000000 
-0.204087 -0.089843 -0.539015 98 93 69 0.078820 0.987010 -0.139993 0.000000 
-0.196608 -0.084625 -0.612093 69 62 46 -0.962134 -0.260551 -0.080072 0.000000 
-0.205523 -0.088891 -0.524496 106 93 76 -0.684529 0.700052 -0.203341 0.000000 
-0.203713 -0.086955 -0.545113 81 74 52 -0.790022 0.609364 0.067388 0.000000 
-0.199386 -0.087484 -0.568393 84 82 68 0.759786 -0.642217 -0.101403 0.000000 
-0.198744 -0.085251 -0.586985 69 71 64 -0.993475 0.114005 0.003257 0.000000 
-0.185287 -0.072221 -0.764395 119 119 108 -0.150610 -0.973269 -0.173391 0.000000 
-0.183573 -0.073434 -0.759859 106 109 102 0.797798 0.586046 -0.141665 0.000000 
-0.201183 -0.086705 -0.514908 100 83 61 -0.575979 -0.151101 0.803378 0.000000 
-0.191852 -0.083634 -0.679816 60 66 58 0.766490 -0.612884 -0.192006 0.000000 
-0.203092 -0.091882 -0.517937 96 89 65 -0.902653 0.424697 -0.069645 0.000000 
-0.196984 -0.084360 -0.613857 79 73 54 0.932837 0.350982 0.081406 0.000000 
-0.197967 -0.082715 -0.606175 70 70 58 0.881094 0.439816 0.173881 0.000000 
-0.199578 -0.087971 -0.572400 85 84 70 0.513292 -0.749439 0.418177 0.000000 
-0.193134 -0.083062 -0.663103 63 65 52 0.833866 -0.542949 0.099373 0.000000 
-0.186822 -0.074130 -0.732782 110 102 84 -0.623947 -0.745922 -0.233003 0.000000 
-0.184626 -0.076564 -0.749089 91 96 86 0.945613 -0.164159 0.280835 0.000000 
-0.192689 -0.080551 -0.650058 99 99 90 0.967252 0.251314 -0.035552 0.000000 
-0.193082 -0.083557 -0.667548 54 59 49 0.561560 -0.798493 0.216932 0.000000 
-0.191477 -0.077799 -0.685145 98 97 75 -0.232271 -0.970071 -0.070799 0.000000 
-0.193414 -0.078713 -0.660504 97 92 73 -0.184508 -0.980424 -0.068738 0.000000 
-0.192569 -0.082656 -0.641546 110 105 87 0.995473 -0.022797 -0.092274 0.000000 
-0.184578 -0.074601 -0.746666 98 93 73 0.979883 0.198324 0.022297 0.000000 
-0.204850 -0.089615 -0.536907 99 95 73 -0.637011 0.623635 0.453097 0.000000 
-0.189887 -0.080250 -0.684018 69 73 60 -0.925815 0.184039 -0.330146 0.000000 
-0.200202 -0.088518 -0.550208 62 59 42 -0.778659 0.625480 -0.049641 0.000000 
-0.200760 -0.088892 -0.583332 105 107 101 0.323767 -0.942229 -0.085897 0.000000 
-0.198104 -0.087563 -0.594578 96 91 74 -0.930155 0.366659 0.019298 0.000000 
-0.201568 -0.086034 -0.536837 85 87 78 -0.664034 -0.733298 -0.146057 0.000000 
-0.199818 -0.086740 -0.546752 57 52 35 0.980117 0.190279 0.056246 0.000000 
-0.189104 -0.076484 -0.702903 97 94 73 0.882636 0.469027 -0.031088 0.000000 
-0.186442 -0.078881 -0.731495 86 92 85 0.916595 -0.398462 0.032876 0.000000 
-0.191312 -0.077594 -0.686864 100 99 77 0.210246 0.976744 0.042049 0.000000 
-0.183144 -0.075888 -0.756575 92 93 79 -0.919499 0.266209 -0.289232 0.000000 
-0.195179 -0.084617 -0.624188 94 94 84 0.809289 -0.521263 0.270806 0.000000 
-0.193930 -0.081748 -0.636354 112 112 105 0.594557 0.781025 0.191053 0.000000 
-0.196699 -0.084638 -0.611770 80 78 66 0.963332 0.264761 0.043505 0.000000 
-0.189063 -0.079431 -0.691292 99 98 78 0.998650 -0.017666 -0.048841 0.000000 
-0.201776 -0.083527 -0.587263 62 56 31 -0.443248 0.895870 -0.030800 0.000000 
-0.184447 -0.077408 -0.751436 89 91 77 -0.938942 0.337494 0.066973 0.000000 
-0.203252 -0.087874 -0.576032 79 77 57 0.637595 0.446819 -0.627555 0.000000 
-0.200824 -0.083653 -0.578137 86 86 76 -0.162674 -0.984356 -0.067682 0.000000 
-0.200472 -0.082496 -0.601717 74 68 54 0.267397 -0.963363 0.020757 0.000000 
-0.202431 -0.084809 -0.559868 92 91 82 0.639159 -0.768396 0.032309 0.000000 
-0.183964 -0.076064 -0.753747 94 93 76 0.954238 -0.203230 0.219380 0.000000 
-0.203693 -0.086880 -0.546763 74 66 46 0.899724 -0.432899 -0.055639 0.000000 
-0.203233 -0.084814 -0.593682 89 91 82 -0.893961 0.442159 -0.073004 0.000000 
-0.193181 -0.079496 -0.656679 121 117 100 -0.177721 -0.979306 -0.096827 0.000000 
-0.204711 -0.090147 -0.541942 106 109 103 -0.211493 -0.977122 -0.022449 0.000000 
-0.194913 -0.083347 -0.627226 89 84 70 -0.817595 -0.541524 -0.195677 0.000000 
-0.198679 -0.081990 -0.617876 78 73 58 -0.023715 0.999139 0.034026 0.000000 
-0.197350 -0.084248 -0.608499 72 67 48 0.924753 0.373381 0.073606 0.000000 
-0.199403 -0.088223 -0.542827 78 74 57 0.877109 -0.469020 -0.103439 0.000000 
-0.192597 -0.082820 -0.665893 68 72 59 0.694745 -0.706749 0.133547 0.000000 
-0.201416 -0.084979 -0.540190 85 77 59 -0.385780 -0.922518 -0.011612 0.000000 
-0.197106 -0.081875 -0.625895 87 82 64 -0.474313 -0.873135 -0.112525 0.000000 
-0.201865 -0.085734 -0.534370 99 100 94 0.455229 0.880301 0.133553 0.000000 
-0.187867 -0.078266 -0.718338 88 91 78 0.960637 -0.269586 0.067080 0.000000 
-0.203125 -0.086588 -0.543781 75 67 48 0.805053 -0.593125 0.009633 0.000000 
-0.201252 -0.089498 -0.579995 109 112 111 0.546133 -0.832817 0.090305 0.000000 
-0.189566 -0.079406 -0.684698 86 90 76 0.970329 0.152133 0.187929 0.000000 
-0.187395 -0.075181 -0.723223 103 99 83 -0.974956 -0.072538 -0.210236 0.000000 
-0.203785 -0.091395 -0.527579 105 106 100 0.011656 0.997098 0.075233 0.000000 
-0.195543 -0.081319 -0.630007 112 112 107 0.516740 0.854768 0.048488 0.000000 
-0.201743 -0.084845 -0.516199 99 79 50 -0.169079 -0.662609 0.729631 0.000000 
-0.191426 -0.083776 -0.682951 80 82 70 0.612844 -0.789545 0.032255 0.000000 
-0.193287 -0.084402 -0.629812 87 84 72 0.790112 -0.544089 0.282295 0.000000 
-0.199977 -0.084300 -0.578359 70 67 55 0.868498 0.484710 0.103765 0.000000 
-0.202451 -0.090310 -0.529750 79 72 53 -0.039330 0.992236 0.117990 0.000000 
-0.191248 -0.083126 -0.694215 60 64 53 0.653822 -0.756545 -0.012493 0.000000 
-0.193556 -0.081755 -0.639616 97 89 75 -0.583955 -0.758982 -0.287999 0.000000 
-0.188001 -0.078024 -0.716073 84 88 80 0.965341 -0.079499 0.248591 0.000000 
-0.199909 -0.087300 -0.557879 59 60 53 -0.853552 0.517177 0.063070 0.000000 
-0.200746 -0.089675 -0.533363 82 76 60 -0.739496 0.673148 0.004147 0.000000 
-0.198740 -0.087163 -0.588852 85 82 68 0.922819 -0.361103 0.134203 0.000000 
-0.196729 -0.084517 -0.628221 71 69 50 0.286227 -0.957808 0.026021 0.000000 
-0.197821 -0.087319 -0.566920 80 79 70 -0.990033 0.016780 0.139835 0.000000 
-0.186865 -0.081095 -0.744519 95 98 93 -0.892258 0.450811 0.025417 0.000000 
-0.200730 -0.084685 -0.572887 83 80 63 0.558612 0.813207 0.163240 0.000000 
-0.200393 -0.088575 -0.553301 75 72 52 0.722486 -0.680775 -0.120663 0.000000 
-0.194218 -0.081779 -0.638080 94 88 71 -0.311178 -0.948900 -0.052503 0.000000 
-0.189299 -0.076979 -0.704787 93 91 71 -0.941192 -0.329483 -0.074823 0.000000 
-0.200165 -0.091065 -0.524385 85 80 66 0.860095 -0.436898 0.263357 0.000000 
-0.189030 -0.075513 -0.710429 97 101 96 -0.701919 -0.710497 -0.050035 0.000000 
-0.199309 -0.085018 -0.581978 73 72 60 0.919346 0.382721 -0.091254 0.000000 
-0.198302 -0.086709 -0.615943 93 94 87 0.283294 -0.958745 -0.023505 0.000000 
-0.190047 -0.081833 -0.711989 64 69 60 0.673418 -0.716370 0.182544 0.000000 
-0.193828 -0.081479 -0.639321 114 112 103 -0.421674 -0.860216 -0.286739 0.000000 
-0.197691 -0.083063 -0.607217 65 63 50 0.836498 0.546028 -0.046084 0.000000 
-0.201707 -0.086134 -0.516609 90 77 48 0.108740 -0.160055 0.981100 0.000000 
-0.202090 -0.091868 -0.521729 107 101 90 -0.749480 0.632518 0.195450 0.000000 
-0.199478 -0.086880 -0.558641 60 61 53 0.795932 -0.600188 0.079161 0.000000 
-0.199709 -0.084470 -0.562094 93 94 89 -0.614447 -0.786321 0.064453 0.000000 
-0.200827 -0.085109 -0.631607 89 82 64 0.713960 0.696582 -0.070962 0.000000 
-0.201634 -0.084233 -0.564553 94 94 87 0.453514 -0.885968 0.096881 0.000000 
-0.183939 -0.072569 -0.754252 118 117 107 -0.889139 -0.430879 -0.154194 0.000000 
-0.194571 -0.084234 -0.624547 83 79 61 -0.954293 0.208625 -0.214009 0.000000 
-0.195205 -0.080609 -0.683223 104 102 87 -0.951537 -0.307228 -0.013682 0.000000 
-0.200970 -0.088605 -0.560936 82 80 64 -0.549567 0.834733 -0.034607 0.000000 
-0.204714 -0.090227 -0.528602 103 96 74 0.441923 0.890861 0.105220 0.000000 
-0.195967 -0.081142 -0.642932 89 81 67 -0.138622 -0.990315 -0.007763 0.000000 
-0.185104 -0.076882 -0.745924 93 94 78 0.850998 -0.515191 -0.101890 0.000000 
-0.202784 -0.089669 -0.515051 119 104 77 -0.551215 -0.834309 0.009527 0.000000 
-0.189551 -0.076936 -0.698067 99 99 90 -0.860896 -0.415870 -0.293104 0.000000 
-0.191601 -0.080696 -0.659194 76 75 61 -0.998711 -0.019746 -0.046766 0.000000 
-0.192253 -0.082214 -0.655385 77 79 68 0.886700 -0.416146 0.201456 0.000000 
-0.189576 -0.078563 -0.694736 94 93 71 -0.954818 -0.231674 0.186143 0.000000 
-0.201278 -0.084567 -0.567545 77 75 66 -0.043925 0.997420 -0.056781 0.000000 
-0.193869 -0.079083 -0.660478 128 124 107 -0.143576 -0.986047 -0.084247 0.000000 
-0.201545 -0.084760 -0.556384 70 65 51 -0.208850 0.970837 -0.117716 0.000000 
-0.184205 -0.075178 -0.749067 109 104 83 -0.984430 -0.143037 -0.102169 0.000000 
-0.201714 -0.090625 -0.524586 74 67 44 -0.742016 0.662672 -0.101384 0.000000 
-0.202335 -0.088533 -0.580187 87 85 68 0.164862 0.978018 0.127675 0.000000 
-0.189451 -0.080455 -0.683958 82 85 72 -0.926338 0.172375 -0.334939 0.000000 
-0.202969 -0.083467 -0.519746 114 107 97 0.166305 -0.697260 0.697260 0.000000 
-0.191592 -0.077201 -0.691157 109 107 92 -0.183711 -0.979389 0.083948 0.000000 
-0.190919 -0.079252 -0.673608 80 81 63 0.897475 0.437161 -0.058561 0.000000 
-0.204578 -0.087136 -0.521468 102 88 73 -0.124801 0.943391 -0.307307 0.000000 
-0.203244 -0.086894 -0.529027 84 77 58 0.084682 0.995285 0.047290 0.000000 
-0.204591 -0.088070 -0.531397 92 81 62 -0.611597 0.791072 -0.012425 0.000000 
-0.190455 -0.080555 -0.681778 76 77 57 0.999478 0.013218 0.029486 0.000000 
-0.204808 -0.084284 -0.574303 110 112 105 0.816204 -0.571487 -0.084931 0.000000 
-0.194222 -0.082371 -0.633585 95 90 76 -0.692686 -0.710562 0.123641 0.000000 
-0.201464 -0.090677 -0.517652 121 104 80 0.430740 -0.902314 0.017124 0.000000 
-0.206294 -0.088312 -0.538894 116 114 104 -0.178093 0.983583 -0.029100 0.000000 
-0.186959 -0.079291 -0.735884 75 81 73 0.738126 -0.674661 -0.001380 0.000000 
-0.197335 -0.080836 -0.659510 92 90 73 0.680398 -0.732842 -0.001380 0.000000 
-0.194366 -0.084794 -0.657098 63 67 61 0.499590 -0.864193 -0.059839 0.000000 
-0.194803 -0.085285 -0.653715 95 94 81 -0.356329 0.933243 -0.045683 0.000000 
-0.199361 -0.086594 -0.550075 57 54 39 -0.963970 -0.098573 -0.247073 0.000000 
-0.199964 -0.085128 -0.575847 63 58 43 -0.928735 -0.365946 -0.059450 0.000000 
-0.201365 -0.086381 -0.536180 81 81 69 0.797063 0.590033 0.128654 0.000000 
-0.183235 -0.078048 -0.775035 85 89 85 0.763613 -0.608722 0.215299 0.000000 
-0.203554 -0.085637 -0.573383 64 61 46 0.840354 -0.533990 -0.093055 0.000000 
-0.188915 -0.080744 -0.697254 90 93 78 -0.998212 0.059331 0.007286 0.000000 
-0.204125 -0.090444 -0.538861 115 118 114 -0.058321 0.997824 0.030751 0.000000 
-0.197722 -0.082709 -0.604535 84 81 73 -0.787618 -0.615975 -0.015226 0.000000 
-0.202005 -0.089971 -0.568400 118 115 105 0.698105 -0.704085 0.130054 0.000000 
-0.198795 -0.085612 -0.587454 70 71 63 0.985816 -0.021805 0.166407 0.000000 
-0.187585 -0.076256 -0.716316 89 92 86 -0.907832 -0.395505 -0.139342 0.000000 
-0.195751 -0.084806 -0.638009 68 67 52 0.245972 -0.967819 0.053150 0.000000 
-0.192628 -0.080138 -0.654144 89 85 71 -0.819067 -0.522907 -0.236002 0.000000 
-0.200056 -0.085864 -0.620980 74 72 56 0.686083 0.707476 0.169611 0.000000 
